# .PCD v0.7 - Point Cloud Data file format
VERSION 0.7
FIELDS x y z
SIZE 4 4 4
TYPE F F F
COUNT 1 1 1
WIDTH 1423
HEIGHT 1
VIEWPOINT 0 0 0 1 0 0 0
POINTS 1423
DATA ascii
0.762335 0.83020699 -0.11319558
0.20295051 -1.0343649 0.063786805
0.19985983 -0.97009718 0.05875444
0.22552194 -0.91828954 0.10991842
0.23603323 -0.9212814 0.13343035
0.22711067 -0.86219001 0.10375909
0.24911085 -0.86786038 0.15652113
0.23701833 -0.80989045 0.10041219
0.2656785 -0.81712604 0.16113339
0.04810328 -0.72031319 1.1139727
0.049818657 -0.72139508 1.1129028
0.047270361 -0.715437 1.1136432
0.094137117 -0.74756759 1.0857759
0.10179456 -0.73426592 1.0809437
0.045029778 -0.71863341 1.1156311
0.26489994 -0.76310557 0.10042829
0.27793127 -0.79338712 0.15850887
0.28681156 -0.77032715 0.15406595
0.26707628 -0.81736636 0.16569141
0.10660835 -0.73592871 1.0780562
0.12534283 -0.681705 1.061648
0.10391845 -0.67485452 1.072625
0.29820731 -0.71631008 0.10461092
0.098609686 -0.61522228 1.0632277
0.14859261 -0.6280567 1.0320684
0.30353764 -0.66227436 0.046778787
0.33274528 -0.66968352 0.1072853
0.32509038 -0.66822892 0.090233937
0.15392116 -0.61895764 1.028428
0.16431116 -0.58127737 1.0086658
0.14670384 -0.57596582 1.0165186
0.33909154 -0.61601162 0.050479271
0.3432163 -0.61684662 0.060093947
0.13384581 -0.5165751 1.012064
0.18394671 -0.53129804 0.98614931
0.34029737 -0.56198537 -0.0098937834
0.36381388 -0.56745428 0.032653466
0.35049871 -0.60067302 0.05110085
0.20229016 -0.48130417 0.96659958
0.37557074 -0.51656061 -0.0081690485
0.38522899 -0.51885313 0.0089404872
0.20168814 -0.42516297 0.96281791
0.2220404 -0.43102184 0.95215732
0.38026115 -0.46255207 -0.065889314
0.40533072 -0.46871287 -0.021745842
0.39700931 -0.49068144 -0.0061965617
0.23747326 -0.38314417 0.94168496
0.4280974 -0.42099768 -0.053866509
0.25324884 -0.33402279 0.92761731
0.45164016 -0.37336999 -0.094283402
0.43348083 -0.41067323 -0.062086318
0.2703346 -0.28115892 0.91308159
0.45397335 -0.32050082 -0.1770328
0.49174917 -0.32891265 -0.11283007
0.46322054 -0.34906924 -0.11690357
0.28652984 -0.23081797 0.89331949
0.47286785 -0.27085674 -0.23243582
0.49984223 -0.27687827 -0.19265334
0.51458395 -0.28084221 -0.16775976
0.30422246 -0.18350276 0.86956149
0.52415937 -0.22999395 -0.23633207
0.51796365 -0.24141476 -0.22587791
0.32452598 -0.13181268 0.85315162
0.54730743 -0.1821232 -0.27540168
0.34016785 -0.093699299 0.83210933
0.34444818 -0.082895912 0.82673669
0.5705089 -0.13445331 -0.31363979
0.55201852 -0.17415108 -0.28257328
0.3636649 -0.03712507 0.7967034
0.59275192 -0.086093232 -0.34719181
0.58829445 -0.097376391 -0.33922893
0.38484082 0.0068443101 0.76772755
0.38641205 0.011717074 0.76594955
0.59609497 -0.032361586 -0.39860311
0.61432326 -0.037151225 -0.37978774
0.40609848 0.06233592 0.74284387
0.65680087 0.060458809 -0.43606758
0.62807858 -0.0076042837 -0.39625096
0.42615774 0.10481238 0.71153402
0.42787674 0.10776209 0.70858514
0.63619679 0.066013865 -0.45663473
0.44929656 0.15462475 0.677683
0.67645228 0.11137012 -0.46489182
0.66940856 0.089877509 -0.4526386
0.46632916 0.19394244 0.65139562
0.69585299 0.16208895 -0.49039426
0.49301004 0.25076127 0.61281633
0.71532458 0.21169007 -0.50950378
0.7195943 0.2103107 -0.50523466
0.50615203 0.28167254 0.59293187
0.73154771 0.26347461 -0.52677333
0.53600216 0.35006627 0.55071306
0.71362668 0.32389691 -0.5677436
0.74950868 0.31390578 -0.53750187
0.54308379 0.36804157 0.53829563
0.55715215 0.39876971 0.51686114
0.73804945 0.37244099 -0.56805342
0.76552314 0.36507618 -0.54227561
0.57633692 0.44191006 0.48426813
0.57939863 0.44727638 0.4797428
0.7525627 0.42402947 -0.57029808
0.78223264 0.41575366 -0.54317856
0.60314804 0.4970623 0.43994099
0.56619531 0.51055729 0.42670706
0.79714304 0.46741191 -0.53705382
0.6074692 0.50671619 0.4323763
0.62670892 0.54692727 0.39499488
0.81245923 0.52018088 -0.52488315
0.63423294 0.56194896 0.38123134
0.65192181 0.5954138 0.34540671
0.80305344 0.58060104 -0.52471507
0.81773978 0.53831261 -0.51828301
0.82539213 0.57400191 -0.5050447
0.67822069 0.64231551 0.28908831
0.83752209 0.62892789 -0.47799513
0.70524132 0.68894279 0.22686136
0.68527639 0.6553846 0.27333817
0.84115231 0.64205378 -0.47116375
0.84978956 0.68552345 -0.44390202
0.73014903 0.7262646 0.16440865
0.73382235 0.73117441 0.15366663
0.70810735 0.69316387 0.21909091
0.8168698 0.75476259 -0.4324452
0.85333019 0.71399897 -0.42018324
0.85645187 0.74265289 -0.39256334
0.74944896 0.75413948 0.10995454
0.76525837 0.77191967 0.061100997
0.85727614 0.76490265 -0.36763179
0.85545135 0.79466838 -0.31462583
0.85405892 0.80456764 -0.25884324
0.81187475 0.81189138 -0.1019147
0.81603718 0.81342208 -0.1193445
0.78682268 0.82108849 -0.10748398
0.79845339 0.80399519 -0.049871493
0.78363073 0.79127187 0.001923962
0.76707047 0.77385873 0.05578294
0.8460921 0.80909294 -0.26053843
0.8353644 0.81498188 -0.20749763
0.82434577 0.81607884 -0.15459394
0.21330206 -1.0384955 0.080491796
0.25606239 -1.0545661 0.14286423
0.24697274 -1.0283977 0.13675655
0.26396567 -0.97005886 0.18165287
0.27016851 -0.93120712 0.21124709
0.2542147 -0.8689881 0.16643856
0.27924737 -0.87471831 0.22680916
0.27623162 -0.90023494 0.23184563
0.28618515 -0.87614423 0.24280089
0.29047757 -0.82255542 0.22079632
0.30203301 -0.82456851 0.25672188
0.13899766 -0.77578694 1.0597762
0.14893113 -0.78234798 1.0529538
0.16889261 -0.75418156 1.0453106
0.11065088 -0.75739056 1.077667
0.096908644 -0.7492069 1.0842327
0.28881189 -0.77102447 0.1600202
0.30972895 -0.77371013 0.22038634
0.32020938 -0.77623898 0.25131595
0.17305478 -0.75492078 1.0428253
0.16647407 -0.69404691 1.0386714
0.32206407 -0.72303915 0.16273674
0.34081316 -0.73417914 0.2222223
0.34319863 -0.72735542 0.21739176
0.15517859 -0.62981373 1.0286177
0.21509553 -0.65047228 0.98507863
0.36066553 -0.67603981 0.18111591
0.21256587 -0.59676808 0.97956961
0.36675042 -0.62226331 0.11217029
0.3677187 -0.65702295 0.16867444
0.37967622 -0.62530905 0.14468013
0.2720564 -0.56065959 0.93122375
0.37380674 -0.56950122 0.054033954
0.43712568 -0.52942586 0.11820918
0.27097091 -0.50512493 0.92513567
0.40976909 -0.5235188 0.05691554
0.42130828 -0.52610081 0.082449406
0.44417623 -0.47833657 0.052894928
0.4402867 -0.48621434 0.058189269
0.28229955 -0.39800805 0.92107803
0.30121279 -0.40120885 0.91011977
0.46628445 -0.42962945 0.018219542
0.29518297 -0.34520751 0.91303295
0.3151646 -0.35281926 0.90481532
0.47064152 -0.37757862 -0.057594497
0.48978218 -0.38222986 -0.018542761
0.5010336 -0.38523036 0.0035945859
0.29237747 -0.28747848 0.90656984
0.32936451 -0.29969457 0.89797837
0.51400936 -0.33453611 -0.065571949
0.50904232 -0.34578991 -0.053857703
0.34132305 -0.2488578 0.88329822
0.53937972 -0.28652674 -0.12361452
0.53166986 -0.30054674 -0.1072126
0.35928318 -0.1987761 0.86681765
0.53219169 -0.23177257 -0.22425331
0.56478941 -0.24002241 -0.17326917
0.55914146 -0.25037792 -0.1621922
0.37845692 -0.1485616 0.84814137
0.5885309 -0.19218357 -0.21717151
0.3807857 -0.14274918 0.84409887
0.39733678 -0.098713703 0.82892537
0.5975166 -0.14152241 -0.27681807
0.61246604 -0.14557815 -0.25540489
0.41658971 -0.052359086 0.80118191
0.63526946 -0.097450852 -0.29268134
0.6242556 -0.12192944 -0.27442759
0.43697858 -0.0010810946 0.77755338
0.65813243 -0.049931042 -0.32814389
0.45614579 0.046069771 0.75112402
0.64837968 0.0068727457 -0.39449522
0.67947298 -0.00041933381 -0.36139596
0.6601944 -0.045565322 -0.33109018
0.47573391 0.089317389 0.7222327
0.4773266 0.093064643 0.71934038
0.7016207 0.047124986 -0.38884199
0.4977805 0.14149816 0.69094282
0.69312185 0.10620818 -0.44792008
0.72062981 0.099349342 -0.42007676
0.51848274 0.18507095 0.66036987
0.52004051 0.18868446 0.6576035
0.54290265 0.23625448 0.62981242
0.75894582 0.19996344 -0.46463978
0.56035221 0.27744994 0.60393739
0.56418246 0.28646418 0.59820694
0.75789958 0.25554377 -0.49933404
0.77700531 0.25039634 -0.48066634
0.58497941 0.33532679 0.56576651
0.78643453 0.30313802 -0.49981841
0.79507929 0.30075693 -0.49085268
0.59511822 0.35983142 0.54918563
0.60573614 0.38347584 0.53211439
0.80759066 0.35285795 -0.50164396
0.81313449 0.35126746 -0.49667215
0.62896043 0.43247429 0.49412128
0.8231647 0.40452367 -0.50331759
0.82862747 0.40300837 -0.49777073
0.65205491 0.48093164 0.45464927
0.82868117 0.45923695 -0.50733638
0.84358525 0.45509377 -0.49276036
0.659145 0.49583045 0.44168675
0.67564124 0.52983111 0.4098306
0.82261586 0.51776284 -0.51472473
0.857732 0.50801444 -0.4799476
0.68642861 0.55055714 0.38940138
0.70131534 0.57889754 0.35901749
0.87242097 0.5625034 -0.45837161
0.71240079 0.59899437 0.33546638
0.72667038 0.62489408 0.30360809
0.84814817 0.62643611 -0.46724722
0.88365936 0.61700982 -0.43230358
0.73658282 0.64102548 0.28083435
0.75409871 0.67115325 0.23891699
0.87636161 0.67802876 -0.41290066
0.88931137 0.65371042 -0.4082298
0.89280748 0.67355198 -0.39565679
0.78116035 0.71135551 0.17399311
0.78358746 0.71456593 0.16629589
0.7587862 0.67854577 0.2278129
0.88583124 0.73373884 -0.35905024
0.89675736 0.71871644 -0.35496968
0.8966791 0.72854221 -0.34267014
0.79962713 0.73865891 0.11944248
0.81540018 0.75560153 0.070826992
0.89557576 0.75722653 -0.30177808
0.8914634 0.77875578 -0.24943407
0.86495626 0.8010816 -0.2009625
0.88272887 0.78882861 -0.19643871
0.84887779 0.80532777 -0.14881852
0.87269145 0.79302919 -0.14350358
0.8603766 0.78996629 -0.090761147
0.84730029 0.78399462 -0.038986612
0.83249623 0.77371258 0.012613591
0.8168599 0.75735044 0.065321088
0.29041609 -1.0893866 0.14970104
0.28772074 -1.0637873 0.18104285
0.28678977 -1.0454743 0.19996417
0.29535905 -0.99757576 0.2429934
0.28380254 -0.93387055 0.2352504
0.29930517 -0.99837279 0.24935623
0.30812788 -0.9404918 0.29223177
0.3027823 -0.88086718 0.28890207
0.30888778 -0.93495589 0.29642287
0.31678069 -0.88457507 0.33385915
0.30952603 -0.82595563 0.28391004
0.32211718 -0.85702443 0.34625769
0.32645842 -0.829395 0.34348923
0.33191913 -0.83054787 0.35650125
0.19258738 -0.80764323 1.0266877
0.20676313 -0.81483322 1.0166925
0.22897683 -0.77216977 0.99299109
0.17601423 -0.79931062 1.0364115
0.17349115 -0.79854232 1.0363638
0.33064938 -0.77709544 0.28114155
0.3436355 -0.77851576 0.34003162
0.35024405 -0.78025651 0.3607839
0.23320068 -0.77325112 0.98899847
0.22707079 -0.71346581 0.99134934
0.2560682 -0.72501141 0.96161515
0.34463924 -0.72750753 0.22306493
0.3577345 -0.72851062 0.28295445
0.37000546 -0.73118651 0.33984312
0.27386704 -0.67623591 0.94022495
0.37677374 -0.67848253 0.22855994
0.39045289 -0.68138373 0.28569826
0.39195219 -0.68179995 0.29130715
0.277096 -0.67762107 0.93640774
0.27166939 -0.61676317 0.93620676
0.29658899 -0.62508368 0.91745967
0.39010465 -0.62758058 0.17183118
0.41018212 -0.63110387 0.2318614
0.39379004 -0.67659324 0.28607678
0.3159526 -0.57544792 0.8947745
0.42532602 -0.58145565 0.17461796
0.4362013 -0.58355856 0.20466016
0.32679319 -0.55140483 0.88712978
0.33430684 -0.52822345 0.8798998
0.32892525 -0.52721119 0.88459879
0.45580044 -0.54249382 0.17631873
0.45884213 -0.53546393 0.1708912
0.33954945 -0.47337207 0.88119382
0.35036489 -0.47669953 0.87539369
0.44687578 -0.47898069 0.058481485
0.47539198 -0.48537987 0.12007784
0.4812783 -0.48675016 0.13312072
0.3563844 -0.41942322 0.88042343
0.36290538 -0.42484394 0.874026
0.48828006 -0.43453825 0.06284833
0.37452692 -0.37351671 0.87363702
0.52796817 -0.39147779 0.05961642
0.52500844 -0.39742675 0.064679347
0.38377157 -0.31887192 0.87197202
0.38742787 -0.31983352 0.8706668
0.52038354 -0.33672994 -0.052588418
0.6006254 -0.30233508 0.014772126
0.39574832 -0.26728472 0.8683812
0.40189967 -0.27008498 0.86553264
0.54805762 -0.2885679 -0.10522433
0.39815533 -0.21034896 0.85750264
0.41692701 -0.21650603 0.853495
0.57159704 -0.24208683 -0.16113964
0.62905759 -0.20350346 -0.14559217
0.62563223 -0.256336 -0.040857948
0.38540664 -0.1507013 0.84656101
0.43218991 -0.16614449 0.84004724
0.62398171 -0.20162673 -0.15520123
0.44979453 -0.1167513 0.82171196
0.63980657 -0.15262382 -0.21291511
0.65345162 -0.15637308 -0.19055603
0.46886402 -0.06744948 0.80155981
0.65050679 -0.10191774 -0.27153835
0.67706144 -0.10895301 -0.23064959
0.6651243 -0.13237719 -0.21050319
0.47583917 -0.05065589 0.7933628
0.48820719 -0.018383665 0.77987605
0.72309417 -0.013098668 -0.30555347
0.50721782 0.029694313 0.7529332
0.74442321 0.036347724 -0.3377462
0.73666149 0.015660504 -0.32404962
0.54925156 0.12549317 0.69883198
0.75608206 0.089088276 -0.37905693
0.76438415 0.087034196 -0.36862707
0.5703733 0.17431302 0.66872311
0.7841652 0.13707449 -0.39329758
0.77229267 0.10530575 -0.37763712
0.59227437 0.22215599 0.64153343
0.78312266 0.19271825 -0.43703726
0.80336624 0.18722434 -0.41425264
0.60956132 0.26339495 0.61545831
0.61325991 0.27218881 0.61002362
0.81708056 0.23886667 -0.43483162
0.82184285 0.23758616 -0.42918375
0.63395458 0.3203932 0.5787465
0.84066069 0.28769651 -0.43996361
0.83519256 0.27050066 -0.43655887
0.645944 0.3459194 0.55905735
0.65619195 0.3676748 0.54382092
0.85809618 0.33885029 -0.44749388
0.67869073 0.41682714 0.50467288
0.87409258 0.39066467 -0.44911379
0.70225412 0.46603212 0.46536958
0.8898651 0.4432798 -0.4413453
0.70947355 0.48101884 0.4516249
0.72565573 0.51378518 0.42092294
0.88576794 0.501001 -0.44852594
0.90210873 0.49653745 -0.4277235
0.73653728 0.53549761 0.39821854
0.75100601 0.56074119 0.36859515
0.91505969 0.55035603 -0.40730572
0.76287699 0.58236808 0.34523705
0.7759679 0.60718608 0.312549
0.90897137 0.61063081 -0.40183035
0.91985136 0.57363129 -0.39451379
0.92745382 0.60556972 -0.37846479
0.78596383 0.62374055 0.28856757
0.80359101 0.65206611 0.24708648
0.93126208 0.66363066 -0.34606585
0.93503273 0.65419996 -0.3442362
0.93590522 0.66209739 -0.33811563
0.82934248 0.69288993 0.18167479
0.83199477 0.69681227 0.1739306
0.80785501 0.65920866 0.2350179
0.92949778 0.71828949 -0.29192409
0.93684906 0.71011323 -0.29024106
0.93621713 0.71681499 -0.27964079
0.8633846 0.73512095 0.074841604
0.84773803 0.71830571 0.12846084
0.93351281 0.74075508 -0.23741373
0.92731714 0.75688297 -0.18503951
0.91863507 0.76413614 -0.13253768
0.90664613 0.7634275 -0.08006195
0.89439166 0.76001328 -0.027942574
0.88022572 0.75019675 0.023480657
0.86655051 0.73809159 0.06779585
0.31492972 -1.1327434 0.13588284
0.31964028 -1.1349888 0.1461188
0.318333 -1.1296372 0.15447749
0.30073154 -1.0694029 0.20498727
0.32436171 -1.0993558 0.21297391
0.3259213 -1.0602019 0.26481223
0.3279728 -1.0083289 0.31253681
0.3293153 -1.0128025 0.31378287
0.33030763 -1.0089585 0.31811592
0.31021345 -0.94133162 0.297638
0.33533496 -0.96781546 0.36155751
0.33048546 -0.95006198 0.35891381
0.33536446 -0.95274174 0.38080966
0.32052603 -0.88634551 0.3497639
0.33528721 -0.89136255 0.41005605
0.24288148 -0.83651125 0.98660654
0.25979766 -0.84897941 0.96832114
0.26232609 -0.84395015 0.96347654
0.34396651 -0.83338547 0.40381676
0.33958575 -0.89247531 0.4334631
0.35548213 -0.8358959 0.46265027
0.27549595 -0.8117016 0.94031459
0.28263265 -0.79573995 0.92907834
0.27506194 -0.79259264 0.93932086
0.23768477 -0.83363968 0.99092931
0.23644455 -0.83259386 0.99250424
0.23631532 -0.83249474 0.99264586
0.3584905 -0.78067064 0.39966908
0.37099195 -0.78235865 0.45886549
0.37252498 -0.78256983 0.47070816
0.27555031 -0.7348786 0.93759
0.30102536 -0.74617559 0.90497875
0.38364094 -0.73261088 0.39880398
0.39535269 -0.73377699 0.45704266
0.39625815 -0.73380715 0.46413627
0.40510592 -0.68329084 0.34463608
0.41565144 -0.68579584 0.40076691
0.42051837 -0.68665671 0.42611346
0.34914041 -0.64887643 0.86055571
0.32651848 -0.64041692 0.88560343
0.42861232 -0.63404441 0.29147705
0.44121814 -0.6367448 0.34807795
0.43009901 -0.66726077 0.40210918
0.44432238 -0.63767254 0.36214483
0.3255347 -0.57976252 0.88721395
0.37441832 -0.60022783 0.83798748
0.44772568 -0.58491582 0.23590662
0.46578798 -0.58886254 0.29407293
0.39604229 -0.55062777 0.82787675
0.38361439 -0.54543173 0.83952934
0.46145368 -0.53592753 0.17715427
0.48621652 -0.53946704 0.23992828
0.47286865 -0.57920629 0.29482794
0.39600056 -0.49659494 0.8392756
0.41154018 -0.50207067 0.82722211
0.50232285 -0.49050167 0.18222576
0.5161978 -0.49344066 0.2173495
0.41490898 -0.44549423 0.83572203
0.51789802 -0.44064391 0.12536839
0.54056853 -0.44649833 0.17878124
0.53775895 -0.45261565 0.18419051
0.43446559 -0.39229572 0.83589441
0.53096789 -0.39220974 0.06526649
0.56209433 -0.3976824 0.12928993
0.5643416 -0.39833969 0.13381818
0.44606543 -0.34070566 0.83727336
0.5788371 -0.34957644 0.071026057
0.56679785 -0.39362517 0.12953374
0.58960116 -0.35235202 0.092805795
0.46035817 -0.28741053 0.83870924
0.61468118 -0.3056303 0.045305211
0.60101926 -0.33134037 0.072721869
0.4715502 -0.23479655 0.8319717
0.70112276 -0.22352295 0.022916239
0.63062966 -0.27877492 0.017107448
0.48752087 -0.18395093 0.82551992
0.65197074 -0.21009293 -0.095767319
0.66782498 -0.21521698 -0.055266079
0.66011935 -0.2294167 -0.038893852
0.50501287 -0.13336536 0.81256676
0.67549485 -0.16172078 -0.15032865
0.72707391 -0.17684188 -0.031668358
0.50837171 -0.12350409 0.80870378
0.52198452 -0.083881132 0.79664475
0.49190289 -0.074457489 0.79917961
0.69061995 -0.11251874 -0.20827286
0.71777713 -0.12033319 -0.15783069
0.71248472 -0.13096775 -0.14857137
0.54060543 -0.034423467 0.77896273
0.73955673 -0.072137475 -0.20437209
0.74176323 -0.072918177 -0.2007515
0.56039506 0.013862479 0.75707203
0.74347878 -0.069103897 -0.20399544
0.76429284 -0.023762463 -0.24255642
0.75302613 -0.02082175 -0.2612102
0.57015043 0.038089201 0.74171889
0.58074266 0.063721776 0.73190409
0.75663984 0.032726798 -0.32098803
0.7868129 0.024700588 -0.277816
0.60034561 0.11217853 0.70689744
0.80309045 0.075731792 -0.3154479
0.80779201 0.074313492 -0.30928281
0.61571485 0.14669926 0.68484688
0.62135172 0.15919061 0.67668039
0.79887342 0.13277622 -0.37480479
0.82756072 0.12476104 -0.33697355
0.81254417 0.085189283 -0.31507659
0.6424036 0.20887357 0.64990747
0.83606297 0.17769262 -0.3728506
0.84790993 0.1741842 -0.35803673
0.65674293 0.24402571 0.62842989
0.66244656 0.25778726 0.61879903
0.86653781 0.22473755 -0.37550637
0.86928827 0.22394587 -0.37179542
0.68372053 0.30566201 0.58647853
0.88506311 0.27535275 -0.38706258
0.69342381 0.32447469 0.57012367
0.70671964 0.35277885 0.55028796
0.86658174 0.33649343 -0.43722624
0.90236938 0.32678795 -0.39311132
0.7279017 0.39817151 0.51535577
0.72910005 0.40110198 0.51342624
0.88213146 0.38856617 -0.43888518
0.91955578 0.37867966 -0.39324296
0.75139618 0.44896674 0.47082809
0.93481058 0.43179923 -0.38453665
0.75770372 0.46086308 0.46088997
0.7752769 0.49675003 0.42614919
0.93650597 0.48828349 -0.38472021
0.93781757 0.44116139 -0.3821328
0.94671065 0.48565784 -0.37008628
0.78585565 0.51373893 0.40631399
0.7999934 0.54299957 0.37402034
0.92814106 0.54770046 -0.39142784
0.95883483 0.54010648 -0.34731829
0.81021243 0.5612722 0.35243803
0.82582414 0.58820385 0.31601158
0.9565798 0.59870946 -0.33648434
0.96505231 0.56740808 -0.33243403
0.96916491 0.59496236 -0.31555459
0.83353114 0.60127378 0.29738685
0.85343331 0.63319057 0.24886569
0.97105527 0.65218294 -0.28101876
0.97391319 0.64307326 -0.279194
0.97538048 0.65118557 -0.27215835
0.87546611 0.66906452 0.19028145
0.88369423 0.6778363 0.17012407
0.85534316 0.63643026 0.24435115
0.96206391 0.71023411 -0.2300896
0.9754914 0.69254881 -0.22624004
0.97003633 0.71766508 -0.17345883
0.91077888 0.71058023 0.086670741
0.92395037 0.72129905 0.043084685
0.89416987 0.69469672 0.13873571
0.96285456 0.73062027 -0.12123995
0.95197725 0.73323464 -0.068780556
0.93992323 0.73031962 -0.016726278
0.92602605 0.72305512 0.034471378
0.32755351 -1.1366394 0.17838137
0.32534876 -1.1382201 0.16415666
0.34835213 -1.1055688 0.27351448
0.34951675 -1.1147856 0.25682336
0.35745701 -1.0811417 0.32219538
0.35725638 -1.0198061 0.37373683
0.36580765 -1.0374136 0.37796149
0.36512285 -1.0229464 0.40344927
0.3466714 -0.95825171 0.41832742
0.36062354 -1.0020663 0.42726687
0.36258394 -0.96436834 0.47901878
0.34944904 -0.89704084 0.46952024
0.36221272 -0.90557116 0.53193188
0.30545899 -0.88925761 0.90647745
0.30735403 -0.89103371 0.90327126
0.31527478 -0.86807728 0.8847667
0.31082657 -0.86596221 0.89147115
0.30030894 -0.88423508 0.91544312
0.26577228 -0.8535794 0.96149302
0.3740558 -0.84243542 0.56443316
0.36342624 -0.90056103 0.53814822
0.31395566 -0.81222558 0.88392019
0.32378134 -0.8172828 0.86705065
0.3790282 -0.78118289 0.52002084
0.39097336 -0.78461164 0.58160871
0.32033151 -0.75531387 0.88035786
0.33636391 -0.76162481 0.85399956
0.40340784 -0.73309076 0.51570004
0.41305733 -0.73333341 0.57384223
0.41411144 -0.73264462 0.59307331
0.36103716 -0.71263552 0.82782561
0.42640072 -0.68592387 0.45924947
0.43250778 -0.68650723 0.51507705
0.43884194 -0.6856212 0.57197064
0.43948111 -0.68552279 0.58576035
0.39435393 -0.66626316 0.78772295
0.37037131 -0.65721124 0.83168113
0.46496403 -0.64040267 0.4625597
0.47034386 -0.64175296 0.51785398
0.44582322 -0.67692453 0.5722416
0.40204903 -0.65471029 0.77970695
0.42895946 -0.62156034 0.75149876
0.41313514 -0.6156469 0.78169239
0.48266634 -0.59001279 0.35417008
0.49631345 -0.5940116 0.41046584
0.48479766 -0.62046456 0.46450648
0.49912018 -0.594477 0.42488486
0.42843309 -0.56442285 0.78542739
0.45210418 -0.57371747 0.74569333
0.50678712 -0.54181248 0.30023265
0.52379292 -0.54563117 0.35839537
0.50394195 -0.58598471 0.41166255
0.44693771 -0.51465446 0.7868048
0.46927288 -0.52313811 0.75833261
0.52691174 -0.49455625 0.24374804
0.55207205 -0.49332067 0.30391312
0.54932487 -0.49803993 0.30900481
0.47016042 -0.46499342 0.78675723
0.48082289 -0.46932843 0.77598435
0.54328883 -0.44714144 0.18481988
0.58542037 -0.43450817 0.24774708
0.57541496 -0.45324978 0.26593146
0.49338821 -0.41584074 0.78762817
0.5884524 -0.40348652 0.18996909
0.60047585 -0.40631393 0.21997592
0.45728725 -0.3442468 0.83051938
0.52177525 -0.36788779 0.78622973
0.60963595 -0.35561123 0.13408563
0.63544559 -0.36145085 0.19445767
0.61593741 -0.37847194 0.19209251
0.48004168 -0.29446489 0.82835913
0.51805562 -0.30760679 0.80764318
0.62946504 -0.30867365 0.076425865
0.65723938 -0.31521252 0.1374076
0.6462903 -0.32430404 0.13632968
0.49701124 -0.24324954 0.82464415
0.67804527 -0.26894948 0.079944767
0.51097596 -0.19038333 0.81958079
0.54393101 -0.20218673 0.80618781
0.67576927 -0.21711271 -0.037036527
0.5099296 -0.13509789 0.8104254
0.55982935 -0.15087111 0.80004722
0.70883441 -0.21737455 0.023584103
0.57619798 -0.10041488 0.78946096
0.72326088 -0.12160031 -0.14737651
0.76280499 -0.12088358 -0.086507119
0.73494655 -0.17070252 -0.030919362
0.59457791 -0.051166952 0.77229315
0.7733196 -0.080916516 -0.14248258
0.78144324 -0.083364248 -0.12568696
0.60986918 -0.0092203496 0.75526834
0.61262512 -0.0018079737 0.75218868
0.60460269 0.00071376603 0.7522043
0.78979021 -0.030591168 -0.1985624
0.80475342 -0.034783628 -0.17014335
0.78909439 -0.067283653 -0.14109784
0.63213044 0.048001848 0.73304105
0.80013794 0.021397734 -0.25636354
0.82757485 0.013800235 -0.20886283
0.82128114 -0.0014260184 -0.19670808
0.65138209 0.095527135 0.7075367
0.84367943 0.064376496 -0.25299528
0.84963113 0.062666103 -0.24284516
0.66005957 0.11428615 0.69738013
0.67267519 0.14424555 0.67882299
0.8450622 0.11986399 -0.31127056
0.87021798 0.11268708 -0.27266905
0.85683954 0.079127349 -0.25234514
0.69283938 0.19290572 0.65105629
0.88068587 0.16486363 -0.31067401
0.89074415 0.16209523 -0.29502025
0.70045722 0.21073808 0.64012581
0.7149812 0.24212158 0.61998886
0.91156405 0.21144214 -0.3118434
0.73747855 0.29134837 0.58565915
0.89537984 0.27236193 -0.37324342
0.93019569 0.26280677 -0.3252736
0.75852025 0.33828604 0.55150551
0.91711307 0.32272968 -0.37456834
0.94823605 0.31418642 -0.33286071
0.77278256 0.36799878 0.52722943
0.78073537 0.38554338 0.51304317
0.93184948 0.37587738 -0.37759459
0.96461332 0.36749196 -0.33119145
0.80336064 0.4325178 0.47131452
0.93733686 0.4311173 -0.38078254
0.97862893 0.42118758 -0.32130185
0.82671469 0.47872961 0.42589402
0.97868365 0.47785577 -0.32183266
0.98031151 0.42053047 -0.31739262
0.98931241 0.47517681 -0.30380133
0.83120728 0.48758686 0.41586888
0.85084176 0.52552968 0.37227648
0.97294176 0.5363459 -0.32818404
0.99871606 0.52953672 -0.27875873
0.85566837 0.53399265 0.36175367
0.87737286 0.57001162 0.31148124
0.99504703 0.58803809 -0.27128288
1.0023539 0.54978317 -0.26687151
1.0081719 0.58551192 -0.24308495
0.90089035 0.60639673 0.25295058
0.90490633 0.61272109 0.24119887
0.87891215 0.57291925 0.3071931
1.0024083 0.64399266 -0.21900378
1.0123135 0.6195758 -0.21563742
1.0108222 0.64078474 -0.19043182
0.9221462 0.63884509 0.19883613
0.93842667 0.66050667 0.15444432
0.98133373 0.70454186 -0.17030659
1.0095136 0.66433352 -0.16154882
0.98978692 0.70311558 -0.11372159
1.002866 0.68547356 -0.1094657
0.98571253 0.70438904 -0.059261374
0.9953022 0.69525808 -0.056737829
0.97319126 0.70856911 -0.0085027171
0.98638248 0.69937056 -0.0053359545
0.93519634 0.7167241 0.03673647
0.97244215 0.69294775 0.044577446
0.95765287 0.68277496 0.096200608
0.9397881 0.66313583 0.14796832
0.3517327 -1.1127563 0.2784602
0.36406395 -1.113492 0.31171575
0.37746316 -1.107239 0.33895412
0.38776258 -1.0934839 0.39208829
0.38944378 -1.0976267 0.39278886
0.38933623 -1.0981247 0.39195037
0.39113078 -1.0925074 0.4026719
0.37664416 -1.027899 0.43171918
0.39310145 -1.0703225 0.44007871
0.38854563 -1.0308359 0.49087325
0.39275965 -1.0402013 0.49180064
0.3944011 -1.0274378 0.51803428
0.3956196 -1.012526 0.5442366
0.37934044 -0.9681378 0.53996694
0.39103618 -0.96616679 0.59272015
0.39542887 -0.97893649 0.59441394
0.3943136 -0.96266526 0.62913829
0.37540376 -0.95714504 0.77422601
0.37954754 -0.94955379 0.7482444
0.36591157 -0.94552398 0.80135417
0.36325938 -0.94309276 0.80018753
0.36382604 -0.9448027 0.80253202
0.36366051 -0.94464058 0.8028869
0.36258197 -0.93994915 0.81211799
0.38175353 -0.9049474 0.59585679
0.39251131 -0.94840974 0.64556587
0.39087301 -0.90302771 0.64577222
0.38685381 -0.90228927 0.69062471
0.39204943 -0.92846829 0.69542247
0.37563038 -0.89947712 0.74020994
0.35984802 -0.89008659 0.79039443
0.34203041 -0.92294496 0.84936684
0.33819953 -0.87907195 0.84000343
0.32635945 -0.90742803 0.87897897
0.31482816 -0.89787149 0.89252579
0.38197207 -0.84690166 0.59187013
0.39477968 -0.84905148 0.64277083
0.40039021 -0.78745759 0.67930675
0.37932071 -0.84043539 0.73131156
0.36878088 -0.83696628 0.78207403
0.34393683 -0.82783514 0.83182549
0.40285397 -0.78902447 0.64071274
0.3886531 -0.78567034 0.73001242
0.37790555 -0.78123707 0.77470124
0.35174981 -0.77114844 0.82396942
0.41736808 -0.73160428 0.63141602
0.41381252 -0.73169374 0.67995328
0.40289021 -0.72938192 0.72906971
0.38751248 -0.72570485 0.77627003
0.44017461 -0.68395591 0.62752175
0.43337151 -0.67966366 0.67871565
0.41946453 -0.67510521 0.72875202
0.39888784 -0.66787112 0.77899837
0.47400749 -0.6405251 0.57382065
0.47020352 -0.63720155 0.62770873
0.45812958 -0.63120431 0.67867941
0.43780679 -0.62444395 0.73022997
0.51049751 -0.59427077 0.46885741
0.51390684 -0.59404606 0.52357751
0.5125764 -0.59312171 0.57733703
0.50400609 -0.59026891 0.62947851
0.48562461 -0.5838998 0.68037832
0.45976219 -0.57582629 0.73215973
0.54255992 -0.54757315 0.41793284
0.55374354 -0.55099952 0.47335666
0.55973232 -0.54812723 0.52729505
0.52596992 -0.57848465 0.57787567
0.51998353 -0.56624681 0.62997472
0.52535766 -0.53989387 0.66162103
0.51634842 -0.53681934 0.68180019
0.48621413 -0.52816236 0.73377025
0.5691216 -0.50031066 0.36438289
0.57567978 -0.51560062 0.42165533
0.58213049 -0.50432968 0.40855372
0.52971298 -0.51869655 0.68296123
0.53843421 -0.48786017 0.70139921
0.51510626 -0.48018551 0.73506153
0.59183282 -0.45492506 0.30778334
0.60995883 -0.45985299 0.35944602
0.61305636 -0.460006 0.36632961
0.54534227 -0.43377742 0.73800713
0.61361712 -0.40840563 0.25117818
0.68046463 -0.37124974 0.3144657
0.56716782 -0.38471016 0.74943906
0.55997324 -0.41026947 0.73973578
0.65803909 -0.36686584 0.25398254
0.66148961 -0.36768261 0.26454204
0.55010903 -0.31993961 0.78634351
0.68847603 -0.32242841 0.21273975
0.66626847 -0.35922718 0.25458479
0.57730907 -0.27064112 0.7858507
0.58973396 -0.27483466 0.77957737
0.70716792 -0.27544931 0.14155069
0.69594258 -0.31032515 0.19870833
0.60218024 -0.22131075 0.78376681
0.73097003 -0.22958766 0.085166946
0.61684805 -0.16901731 0.78283685
0.75339848 -0.18302494 0.028728332
0.78160059 -0.18875626 0.090414569
0.75352287 -0.21087326 0.087381952
0.63181204 -0.11768863 0.77438009
0.77893436 -0.13584241 -0.025635457
0.79374212 -0.14002405 0.011578355
0.78452361 -0.1570266 0.031274311
0.6491549 -0.067714997 0.76131314
0.62447542 -0.059671413 0.76711887
0.80291611 -0.089087665 -0.081668608
0.82839811 -0.09512002 -0.020947492
0.81003809 -0.11021153 -0.023111058
0.66668004 -0.017686034 0.74503058
0.82279474 -0.038851704 -0.13665009
0.84390384 -0.044966161 -0.091942057
0.8512004 -0.046785749 -0.076615579
0.6855343 0.031955071 0.72618467
0.83514524 0.011812218 -0.19489253
0.87016463 0.0073741805 -0.13428511
0.86792237 0.0027000571 -0.13061236
0.70577735 0.080246478 0.70138901
0.87821418 0.055271614 -0.19096071
0.88994581 0.051812578 -0.16738705
0.72470242 0.12805185 0.67578155
0.88397396 0.10885549 -0.24959064
0.91200811 0.10078651 -0.19797322
0.90699106 0.088094555 -0.19045724
0.74214607 0.16740221 0.65265441
0.91870236 0.15400173 -0.24942996
0.93387687 0.14966071 -0.22167976
0.74686474 0.17783768 0.64572239
0.76735222 0.22678471 0.61641079
0.94798708 0.20220867 -0.25105232
0.95463789 0.20009103 -0.23895237
0.78045624 0.25404221 0.59662271
0.78957409 0.27443767 0.58247632
0.93867993 0.26040015 -0.31157678
0.97276533 0.2514064 -0.25255945
0.81155723 0.32214361 0.54646492
0.96066666 0.31110784 -0.31294701
0.98360342 0.27703044 -0.25327793
0.99136615 0.30442044 -0.25682163
0.81486589 0.32938418 0.5409981
0.8325215 0.36896574 0.50772923
0.97495079 0.36478838 -0.31503436
1.0058825 0.35748151 -0.25630015
0.84671587 0.39839649 0.48201826
0.8546803 0.41632032 0.46644285
1.012836 0.41312036 -0.25495356
1.0175105 0.41237894 -0.24527036
0.87494487 0.45322993 0.42591339
0.87869573 0.46088645 0.41797835
0.85290378 0.47109219 0.4221645
1.0125568 0.46922815 -0.25771096
1.0260907 0.46610031 -0.22525527
0.89969897 0.50039339 0.37200585
0.90427512 0.50726813 0.36309734
0.87781948 0.51618904 0.36771581
1.0067106 0.52747399 -0.26380694
1.0334491 0.50973511 -0.20117317
1.0326307 0.52075571 -0.2025855
1.0353665 0.5201782 -0.19510834
0.92252016 0.54050726 0.31555668
0.9298237 0.5511291 0.30076852
0.88778865 0.56643492 0.30966812
1.0232556 0.58079624 -0.20980224
1.0434996 0.57583332 -0.15805417
0.94423568 0.57515168 0.26321185
0.96019346 0.59605253 0.22305419
1.0264894 0.63766891 -0.15782049
1.043326 0.58557522 -0.14955696
1.0400264 0.632433 -0.097677216
1.0425878 0.62820655 -0.097010098
1.0422417 0.63248199 -0.088471465
0.98395848 0.62882054 0.16048041
0.99876499 0.64418083 0.11722936
0.94595832 0.6573416 0.15055415
0.96487296 0.60227489 0.21133977
1.0369374 0.65284652 -0.044742469
1.0273259 0.66040236 0.0065690186
1.0149028 0.65776205 0.057603557
1.0005434 0.64636022 0.10954095
0.38947776 -1.0979278 0.39260182
0.38952023 -1.0978333 0.39283243
0.39314175 -1.0927161 0.40858516
0.39216837 -1.0936385 0.40337354
0.38953799 -1.0977689 0.39295325
0.39782339 -1.0836946 0.44314
0.39964363 -1.0794755 0.45822522
0.40437087 -1.0674642 0.49696618
0.40569982 -1.062899 0.51003599
0.40828082 -1.0568552 0.52637368
0.40118283 -1.0267072 0.54764086
0.41092503 -1.047065 0.54912686
0.41585675 -1.0293134 0.60003066
0.41587973 -1.0310882 0.59590143
0.41338259 -1.0249211 0.59948301
0.41467893 -1.0228899 0.61753422
0.4154759 -1.027945 0.60461575
0.41239816 -1.0106852 0.65150839
0.40711132 -0.99706531 0.70497102
0.41179213 -1.0081736 0.65840709
0.38634717 -0.96790993 0.7518068
0.39038858 -0.97317517 0.74334466
0.38040954 -0.96184939 0.76420999
0.55535346 -0.54523647 0.57977492
0.53952378 -0.54228824 0.63064134
0.58743501 -0.50380379 0.42418009
0.60039926 -0.5057525 0.48087993
0.60225594 -0.50370598 0.53291541
0.59370315 -0.4979232 0.58231682
0.57865238 -0.49435669 0.63213581
0.55168533 -0.49000487 0.68297082
0.63102072 -0.46233827 0.42688394
0.63176739 -0.47181499 0.48238915
0.63797939 -0.46224794 0.47063425
0.60955489 -0.49513257 0.5335694
0.59673482 -0.47205383 0.63334531
0.60690355 -0.44955578 0.65243536
0.58796084 -0.4447757 0.68545038
0.65597379 -0.41627219 0.3714816
0.66184717 -0.42881694 0.4273552
0.667234 -0.4196761 0.41767675
0.62199599 -0.39983597 0.68909043
0.57719302 -0.38716194 0.74038756
0.69063598 -0.38190338 0.3721866
0.69510406 -0.37448677 0.36494431
0.61178708 -0.33983794 0.74031943
0.63463771 -0.34716856 0.71844834
0.7072044 -0.32473701 0.259464
0.72232646 -0.32910082 0.30980787
0.71865112 -0.33442733 0.31680837
0.64337158 -0.29276431 0.74132097
0.73315364 -0.28075221 0.20273361
0.80140245 -0.24319652 0.26712459
0.74690294 -0.29029065 0.26122376
0.6504643 -0.28050777 0.74129909
0.66046649 -0.240729 0.75064176
0.75774592 -0.23512882 0.14645018
0.7779066 -0.23997587 0.20011738
0.77490526 -0.24495313 0.20571612
0.62146741 -0.17052527 0.78083676
0.67384523 -0.18771663 0.75522405
0.8042925 -0.19420877 0.15009326
0.68840396 -0.13598536 0.75167358
0.80342489 -0.14196956 0.033841189
0.82830465 -0.14731058 0.094402105
0.83008671 -0.14778663 0.098883457
0.70568889 -0.085019849 0.74408394
0.8523252 -0.1005224 0.039013878
0.85571206 -0.10156374 0.048603941
0.72255903 -0.034855887 0.72908801
0.87501079 -0.053703953 -0.017241186
0.86035144 -0.093118675 0.039545525
0.7259717 -0.026299363 0.72643548
0.74053776 0.014792047 0.71252036
0.71585274 0.022140481 0.71785295
0.89381921 -0.0041801389 -0.074275084
0.89214343 -0.036504764 -0.016204976
0.9066267 -0.0080062943 -0.042394336
0.75867581 0.06325192 0.68931049
0.90765733 0.047566086 -0.13084236
0.93043679 0.040156242 -0.078163311
0.93273628 0.0395847 -0.073094457
0.77856243 0.10789388 0.66520435
0.7803511 0.11246394 0.66295028
0.77571708 0.11387328 0.66380352
0.91658074 0.099573523 -0.18945189
0.94407773 0.091867581 -0.13014989
0.95247531 0.089378238 -0.11110316
0.80055225 0.1611113 0.63606042
0.95013905 0.14568524 -0.18931548
0.97091919 0.13083236 -0.13075042
0.81892025 0.20236011 0.60950172
0.82214904 0.20983937 0.60439628
0.81159937 0.21320654 0.6072157
0.97980064 0.1939767 -0.18896225
0.99424732 0.19055521 -0.15539074
0.84388727 0.25855353 0.57051295
1.0029736 0.24505705 -0.18930833
1.0121061 0.24291977 -0.16796716
0.86523563 0.30527619 0.53285885
0.8224138 0.31904963 0.54346389
0.9932605 0.30423588 -0.2525619
1.020933 0.29720262 -0.18958387
1.0279261 0.29628941 -0.17204049
0.88649786 0.35010242 0.49648055
1.0074965 0.35754737 -0.25281456
1.0328158 0.35088977 -0.19051307
1.0429498 0.34955952 -0.169072
0.88777286 0.35298035 0.49381796
0.90799564 0.39819273 0.45259687
1.038848 0.40592822 -0.1925492
1.0526772 0.40311092 -0.15691154
0.91532832 0.4126699 0.43710214
0.93206984 0.44493189 0.40119395
1.0387864 0.46226975 -0.19600828
1.0610811 0.45007959 -0.13673387
1.0610905 0.45781502 -0.13696593
1.0626718 0.45753679 -0.13340533
0.9407717 0.45897076 0.38411805
0.95903426 0.48937201 0.34282473
1.0569056 0.51464182 -0.14097401
1.0713573 0.51219153 -0.1026307
0.98477775 0.53238326 0.27630439
0.98684114 0.5351392 0.27121249
0.98069859 0.53693074 0.27496639
0.96397686 0.49876237 0.32957575
1.047173 0.57444042 -0.14804277
1.0741602 0.5367009 -0.084902488
1.0660137 0.56914729 -0.087875359
1.0753745 0.56866962 -0.052416779
1.0049505 0.56100374 0.22350124
1.0207154 0.58010632 0.18091148
0.97378689 0.59320521 0.21518047
1.0523268 0.62972885 -0.040232755
1.0735003 0.58376062 -0.032485958
1.0524498 0.62888002 0.014725078
1.0645624 0.60674781 0.018631395
1.0356678 0.63453364 0.064386293
1.052783 0.60790771 0.070490725
1.0050659 0.64161378 0.11131877
1.037511 0.60152811 0.12055035
1.0223364 0.58351487 0.1723755
0.64067048 -0.4630613 0.48209226
0.6426723 -0.45870021 0.53658676
0.63499546 -0.45459095 0.58464199
0.6171549 -0.45076743 0.63422859
0.66936898 -0.41936257 0.42744967
0.68232101 -0.41961542 0.48533466
0.68260437 -0.41541085 0.53695917
0.67201835 -0.41148037 0.58696151
0.65507597 -0.40555212 0.6362896
0.71249264 -0.3766166 0.43101573
0.71936607 -0.37688607 0.48626
0.70085144 -0.39453158 0.53824002
0.71886986 -0.37590444 0.50455618
0.69133002 -0.3897312 0.5891245
0.69083881 -0.36086336 0.63993579
0.66095185 -0.35329679 0.68886763
0.72485417 -0.32933742 0.31743807
0.74323046 -0.33125478 0.37765557
0.75313979 -0.33546352 0.43247128
0.72640765 -0.36965251 0.48643538
0.69448245 -0.30742624 0.69150198
0.70468968 -0.31106836 0.67590207
0.77295578 -0.28786048 0.32217416
0.78517812 -0.28960741 0.37968424
0.7817362 -0.28996485 0.36275169
0.71375054 -0.276629 0.6934458
0.72429907 -0.2612426 0.69452989
0.67374074 -0.24479806 0.74050933
0.78047174 -0.24021553 0.20643333
0.8004601 -0.26287618 0.32348692
0.81105328 -0.24614576 0.30264395
0.69797558 -0.19561987 0.73934406
0.73450619 -0.20799276 0.71186447
0.82668984 -0.19793944 0.21094412
0.84589988 -0.20079291 0.27096093
0.83737242 -0.19977807 0.2466549
0.71606827 -0.1447483 0.73835617
0.74976218 -0.15595017 0.71556365
0.85187995 -0.15173462 0.15540965
0.85559767 -0.17003474 0.2129277
0.86492527 -0.1551525 0.19594072
0.72571951 -0.091682382 0.7336266
0.763358 -0.10383949 0.71292138
0.8742702 -0.1051656 0.098815098
0.89085323 -0.10899115 0.1469892
0.88517505 -0.11918655 0.15714367
0.77937257 -0.053232092 0.70280868
0.89766186 -0.057183724 0.043619897
0.91629636 -0.062406342 0.10139978
0.79712737 -0.0032418347 0.68689656
0.91793162 -0.010272088 -0.014045036
0.93719465 -0.014384745 0.045283429
0.9420321 -0.015588802 0.059530362
0.81563699 0.046085302 0.6679942
0.79959995 0.051293388 0.6750204
0.95569485 0.033583477 -0.012602237
0.95129341 0.0013374593 0.045410156
0.83579051 0.095068634 0.64521331
0.96906275 0.086334705 -0.07062646
0.99024886 0.08052294 -0.011649136
0.85211039 0.13414955 0.62266517
0.85596997 0.14379926 0.61677527
0.84774655 0.1467369 0.62035102
0.97659051 0.1386755 -0.12987901
1.0011533 0.13417912 -0.068166375
1.0100973 0.13224098 -0.042679902
0.87769961 0.19252835 0.58479083
1.0053335 0.18856743 -0.12800339
1.0270215 0.18407029 -0.068024263
1.0305617 0.1830869 -0.060167097
0.88916081 0.21845588 0.56601781
0.89784801 0.23934172 0.55039042
0.87354118 0.24836053 0.56020898
1.0279145 0.23928237 -0.12780735
1.0472654 0.23578127 -0.068284057
0.92053306 0.28735718 0.51228809
1.0436888 0.29232767 -0.1280314
1.0625211 0.28840441 -0.069873683
0.9416002 0.3348653 0.47146982
1.0549455 0.34604073 -0.12974305
1.0739557 0.34239483 -0.072231606
1.0767382 0.3418853 -0.063806251
0.95245528 0.35582286 0.45134193
0.96407127 0.38067296 0.42559397
0.93172246 0.39214498 0.44404465
1.0611647 0.40098745 -0.13230374
1.0800357 0.39706874 -0.073588364
1.0855198 0.39642209 -0.048945516
0.97890419 0.40693656 0.39712876
0.98898399 0.42717585 0.37160379
0.95814276 0.43765247 0.39009392
1.081324 0.452537 -0.075994968
1.0939988 0.45090303 -0.024294468
1.0002031 0.44866651 0.34219816
1.028832 0.47029722 0.29413557
0.97511107 0.48465085 0.3346425
1.0776979 0.51013833 -0.081739649
1.0951256 0.45866969 -0.019146772
1.0906503 0.50732744 -0.022887124
1.0974694 0.50536752 0.03483076
1.0421983 0.50726497 0.23773754
1.0647036 0.51507097 0.18988624
1.033305 0.52155757 0.23456717
1.0226208 0.47937077 0.29045352
1.0770218 0.56592822 -0.029564589
1.0950263 0.51860189 0.033362884
1.0829039 0.56356955 0.026196066
1.0753615 0.56406969 0.078285016
1.0878761 0.53641605 0.084517762
1.0578384 0.56869686 0.12845004
1.0738554 0.53868693 0.13493229
1.027261 0.57791555 0.17469274
1.0569528 0.52559179 0.18744358
0.71994376 -0.37449947 0.5389961
0.70931613 -0.36793858 0.59070605
0.75827205 -0.33361253 0.48852226
0.75722373 -0.32968697 0.54235911
0.7463932 -0.32322538 0.5941087
0.72697514 -0.31749371 0.642905
0.7933656 -0.29057708 0.4362067
0.79541349 -0.28971049 0.4912737
0.79180235 -0.28697214 0.54525793
0.7798121 -0.28108376 0.59705842
0.75864887 -0.27305728 0.64694524
0.8173008 -0.2466846 0.32517269
0.82872719 -0.24717408 0.38322634
0.83200914 -0.24726184 0.43864134
0.83162981 -0.24821408 0.49278104
0.81539863 -0.25355729 0.54648185
0.80936074 -0.23570009 0.59917361
0.78783077 -0.22670721 0.64968383
0.7511915 -0.21346007 0.69598359
0.85951048 -0.20283763 0.32921845
0.86720544 -0.20572597 0.38468346
0.84545559 -0.23419204 0.43936473
0.81291264 -0.17843379 0.65175039
0.77283901 -0.16374466 0.69660759
0.87097919 -0.15563576 0.21466023
0.88633209 -0.15763578 0.27382439
0.89100391 -0.1672385 0.32981542
0.83124566 -0.12662911 0.65560359
0.79164392 -0.11321995 0.69318867
0.8279568 -0.14480637 0.65167618
0.89454138 -0.10903129 0.15853605
0.910963 -0.11157542 0.21795987
0.92248368 -0.11480207 0.27449524
0.80160058 -0.060375374 0.68863952
0.84455639 -0.074018136 0.6556173
0.93423963 -0.064333782 0.16178682
0.95094818 -0.061375406 0.21965134
0.94826692 -0.067659609 0.22544497
0.80519843 -0.0057224524 0.68282938
0.85915554 -0.022850769 0.64637202
0.9554469 -0.017294662 0.10455947
0.96946532 -0.019667741 0.16286646
0.86323911 -0.024175726 0.64307737
0.87668079 0.027540514 0.63184679
0.86882633 0.029676266 0.63703704
0.97479647 0.031321693 0.048011601
0.98957169 0.028418973 0.10681141
0.98364049 0.00031763362 0.16341442
0.99795008 0.027525552 0.14109914
0.86541957 0.086596392 0.63058293
0.89668196 0.076862462 0.61030245
1.0075829 0.078805164 0.050157133
1.0207597 0.076416172 0.11333228
0.9165355 0.12573731 0.58244073
1.0217035 0.13014136 -0.0076475721
1.0345618 0.12829684 0.050935395
1.0255196 0.086887248 0.1071948
1.0416567 0.12731546 0.082670294
0.93724418 0.1740974 0.55231982
0.90270227 0.18465476 0.57285815
1.0453564 0.18084741 -0.0074359733
1.0580071 0.1787549 0.050962195
1.0604542 0.17816593 0.062779427
0.95258194 0.21139106 0.52444696
0.95660096 0.22184485 0.51671475
0.94901872 0.22419113 0.52200735
1.0633036 0.23282214 -0.0076366281
1.0746163 0.23164111 0.050166856
1.0757816 0.23143235 0.056173362
0.92470974 0.2858251 0.51000422
0.98638725 0.26652953 0.46911696
1.0772052 0.28627399 -0.0095862113
1.08806 0.28465733 0.047537196
1.0903139 0.28487349 0.066368051
0.98260701 0.27933013 0.46667865
0.99901772 0.31523404 0.43362254
0.96797389 0.32607359 0.4579941
1.089056 0.33908275 -0.012431845
1.09935 0.33754066 0.045995302
1.1058306 0.33907816 0.10211841
1.0108143 0.33737865 0.41103432
1.0271528 0.36282694 0.38055372
0.99773657 0.37029925 0.40453717
1.093866 0.39466169 -0.0140543
1.1049436 0.3937481 0.042899307
1.108115 0.39401144 0.10006332
1.0591724 0.40622482 0.30936742
1.0618759 0.40930811 0.29842758
1.0567107 0.41035923 0.30786493
1.0186797 0.4184832 0.35087234
1.0357653 0.37843794 0.35912293
1.094884 0.45054811 -0.018379783
1.1046752 0.44870168 0.0397892
1.1058918 0.44957897 0.095633231
1.1080317 0.39432108 0.1110024
1.1047831 0.42829001 0.15252009
1.098332 0.45135909 0.14946383
1.0852962 0.45475358 0.20094205
1.0924697 0.43510997 0.20462133
1.0646411 0.46063936 0.24885638
1.076685 0.42715684 0.25637564
1.095855 0.50645095 0.088963121
1.0849217 0.50821382 0.14058159
0.8245827 -0.24306057 0.54725808
0.86930025 -0.20407328 0.44039539
0.86672616 -0.20201346 0.49604356
0.85743421 -0.19595844 0.54945779
0.83859974 -0.18768471 0.60036045
0.8964327 -0.15941714 0.33049619
0.9028303 -0.16034146 0.3874099
0.90220958 -0.15801905 0.44286266
0.89652628 -0.1536506 0.49697718
0.88524628 -0.14739433 0.55051792
0.8662048 -0.13957481 0.60162377
0.83562827 -0.1281383 0.65100843
0.93110633 -0.11334192 0.33317912
0.93258804 -0.11172385 0.38866949
0.93232346 -0.10931596 0.44371158
0.92327088 -0.1052703 0.49821067
0.91024703 -0.098807253 0.55087996
0.88879931 -0.089850359 0.60181862
0.85238224 -0.076711625 0.64797843
0.95673603 -0.06752608 0.27811494
0.9626354 -0.066750303 0.3341122
0.96032792 -0.063774772 0.38974223
0.95750153 -0.061001573 0.44415802
0.94997686 -0.057066899 0.49916109
0.93344665 -0.048912857 0.55143124
0.90544564 -0.03791162 0.60043752
0.98185283 -0.019822851 0.22211882
0.98774046 -0.020396423 0.2794989
0.98978263 -0.020355806 0.33586735
0.98588312 -0.014477675 0.39027655
0.96393532 -0.044150814 0.44416457
0.95685399 -0.040619113 0.49862763
0.95982236 -0.00066207076 0.52422255
0.94943678 0.0034352394 0.5504517
0.91682899 0.014890738 0.59650713
1.002031 0.028309202 0.16502739
1.0113357 0.027395947 0.22229879
1.0143918 0.027864141 0.28131852
1.0148522 0.029597335 0.3366133
0.96048039 0.056435689 0.54591268
0.97157359 0.052658904 0.52717108
0.92167479 0.068577349 0.58986205
1.0293715 0.077091433 0.1659725
1.037685 0.076974355 0.22233194
1.0396467 0.078084297 0.28150633
1.0381751 0.078647643 0.30757311
0.96604294 0.11026355 0.54013467
1.0008972 0.13641255 0.49074125
1.0463558 0.1263033 0.10918187
1.0540315 0.12673476 0.16667089
1.0574856 0.12742557 0.22316845
1.0588725 0.13035797 0.28041604
1.0080246 0.15266506 0.4794924
1.0020635 0.15404522 0.48845875
0.96317846 0.16552804 0.53212488
1.0671363 0.17804195 0.10800628
1.0746138 0.17844625 0.16568352
1.0769932 0.17934379 0.22185574
1.0773386 0.18210116 0.27855581
0.99879736 0.20879386 0.47986847
1.0300722 0.20030397 0.43445432
1.0841095 0.2304011 0.10801197
1.0906776 0.23090366 0.16429535
1.0934246 0.23193389 0.22189128
1.0898802 0.23599137 0.2776292
1.0561255 0.24732904 0.38008061
1.0286744 0.25390601 0.42647693
1.0970765 0.28399986 0.10488477
1.1014204 0.28502718 0.16201566
1.1032982 0.28763378 0.21986313
1.094408 0.29069206 0.27375481
1.0787537 0.29542083 0.32513371
1.0782708 0.2680822 0.3280803
1.0548176 0.30029917 0.37226185
1.0185666 0.31005016 0.41568956
1.1072952 0.33918661 0.16008539
1.1065277 0.34246045 0.21556835
1.0950781 0.34641963 0.26894337
1.0742105 0.35085502 0.31797773
1.0440131 0.35775402 0.36373737
1.1061732 0.39526397 0.15570915
1.098528 0.39863452 0.20920907
1.0837889 0.40284607 0.2602326
0.9803924 -0.010400798 0.44380486
0.96999055 -0.0054975348 0.49787602
1.0114912 0.034809705 0.39159471
0.99998349 0.040739421 0.44373089
0.9862119 0.047016911 0.49673143
1.0375018 0.082100257 0.33830178
1.0282506 0.084917471 0.39013097
1.0172608 0.091579303 0.44303191
0.9985702 0.099837244 0.49428484
1.0574834 0.13390587 0.33520815
1.0442717 0.13837872 0.38828593
1.0279495 0.14536443 0.43985197
1.068893 0.18650334 0.33366394
1.05397 0.19221368 0.38537067
1.074128 0.24079055 0.32938042
-0.93095201 0.077958494 -0.64730501
-0.93717182 0.067208193 -0.64239889
-0.93832582 0.078279175 -0.64256907
-0.96867543 0.035316531 -0.61357868
-0.97047031 0.063428104 -0.60619164
-0.9955498 0.010192647 -0.57568836
-0.9999662 0.04767213 -0.56688607
-1.0163693 0.0066771111 -0.53522277
-1.0181977 0.031855606 -0.52651066
-1.0276178 0.019457813 -0.4954741
-0.88961339 0.14199302 -0.67924857
-0.90804791 0.11838436 -0.66647273
-0.90861261 0.13729246 -0.66413385
-0.94207883 0.12732595 -0.62769765
-0.97070122 0.1106094 -0.59317237
-0.99473923 0.09375535 -0.54858363
-1.0171969 0.080208622 -0.50657105
-1.0283536 0.061565977 -0.46902132
-0.85295188 0.20131482 -0.70232993
-0.86618733 0.17394915 -0.69117093
-0.8757748 0.19436081 -0.6853317
-0.90711194 0.18428943 -0.65461707
-0.93923968 0.17456973 -0.61141062
-0.96693879 0.15851654 -0.57326037
-0.98803151 0.14092042 -0.52973986
-1.0063393 0.12223109 -0.48575377
-1.0153428 0.10693239 -0.45455968
-0.82284671 0.26060969 -0.71312815
-0.83442146 0.24197844 -0.70941705
-0.83060992 0.25281939 -0.7076273
-0.86570692 0.24392673 -0.67354506
-0.89845008 0.23178224 -0.63096398
-0.92748904 0.21635334 -0.59991223
-0.95499682 0.19745471 -0.55246842
-0.97522467 0.18307248 -0.50896293
-0.99223751 0.16379417 -0.46457741
-0.9937982 0.16013242 -0.45638871
-0.8242299 0.29794884 -0.69297165
-0.78688884 0.30499139 -0.72349054
-0.85906982 0.28607935 -0.65745026
-0.88874567 0.27469185 -0.61486769
-0.9107874 0.26032099 -0.5737505
-0.9351235 0.2405463 -0.53008294
-0.95300436 0.22229937 -0.48450372
-0.95985377 0.21546726 -0.46944296
-0.76981664 0.35906956 -0.71474296
-0.78338242 0.30714193 -0.72534126
-0.77298975 0.36204231 -0.70936793
-0.80889702 0.3434895 -0.6713565
-0.84071535 0.33016381 -0.63257807
-0.86923641 0.31636226 -0.59071493
-0.89447916 0.30147237 -0.54733759
-0.91322732 0.28261647 -0.5030672
-0.94806707 0.23268023 -0.4770788
-0.76371247 0.39983633 -0.68986291
-0.75958878 0.40007621 -0.69469404
-0.79487652 0.38500196 -0.64761657
