3.39028 1.93696 18.6643 
3.38215 2.00441 18.7013 
3.39985 2.04253 18.7275 
3.43766 2.05192 18.742 
3.48981 2.03317 18.7437 
3.55059 1.9869 18.7316 
3.61423 1.91368 18.7046 
3.675 1.81412 18.6617 
3.22875 1.50928 19.1897 
3.19136 1.61047 19.2298 
3.18371 1.6787 19.2654 
3.20037 1.71512 19.2946 
3.23596 1.72087 19.3154 
3.28505 1.6971 19.3258 
3.34226 1.64497 19.3238 
3.40217 1.56563 19.3074 
3.45937 1.46021 19.2747 
2.90937 1.21178 19.705 
2.87569 1.31642 19.7391 
2.86879 1.38535 19.7735 
2.8838 1.42023 19.8054 
2.91587 1.4227 19.8318 
2.96011 1.39442 19.8501 
3.01166 1.33701 19.8572 
3.06564 1.25215 19.8504 
3.11719 1.14146 19.8268 
2.485 0.953653 20.1521 
2.45623 1.06128 20.181 
2.45033 1.13083 20.2143 
2.46316 1.16438 20.2485 
2.49055 1.164 20.2799 
2.52834 1.13179 20.305 
2.57236 1.06981 20.32 
2.61847 0.980159 20.3215 
2.6625 0.864903 20.3058 
1.96875 0.741466 20.5196 
1.94595 0.851552 20.5443 
1.94128 0.921602 20.5767 
1.95145 0.954054 20.6128 
1.97315 0.951342 20.6483 
2.00308 0.915901 20.6789 
2.03796 0.850167 20.7005 
2.07449 0.756574 20.7088 
2.10938 0.637559 20.6996 
1.37375 0.581778 20.7962 
1.35784 0.693713 20.8176 
1.35459 0.764142 20.8495 
1.36168 0.79577 20.887 
1.37682 0.791297 20.9255 
1.39771 0.753429 20.9603 
1.42205 0.684865 20.9868 
1.44754 0.58831 21.0002 
1.47187 0.466465 20.9959 
0.713125 0.481153 20.9705 
0.704868 0.594253 20.9899 
0.703176 0.664921 21.0213 
0.706857 0.696029 21.0597 
0.714717 0.690448 21.1001 
0.725561 0.651049 21.1376 
0.738196 0.580703 21.1672 
0.751428 0.48228 21.1838 
0.764062 0.358653 21.1826 
0 0.446153 21.0311 
0 0.559658 21.0498 
0 0.630409 21.0811 
0 0.661337 21.1198 
0 0.65537 21.1609 
0 0.615438 21.1993 
0 0.544472 21.2299 
0 0.4454 21.2477 
0 0.321153 21.2476 
-0.777725 0.481154 20.9705 
-0.748144 0.594253 20.9899 
-0.730429 0.664921 21.0213 
-0.722629 0.696029 21.0597 
-0.722792 0.690448 21.1001 
-0.728967 0.651049 21.1376 
-0.739205 0.580703 21.1672 
-0.751554 0.48228 21.1838 
-0.764062 0.358654 21.1826 
-1.46867 0.581778 20.7962 
-1.42143 0.693713 20.8176 
-1.39463 0.764143 20.8495 
-1.38485 0.79577 20.887 
-1.38868 0.791298 20.9255 
-1.40271 0.753429 20.9603 
-1.42353 0.684865 20.9868 
-1.44772 0.58831 21.0002 
-1.47187 0.466465 20.9959 
-2.06763 0.741466 20.5196 
-2.01219 0.851552 20.5443 
-1.983 0.921602 20.5767 
-1.97559 0.954054 20.6128 
-1.9855 0.951342 20.6483 
-2.0083 0.915901 20.6789 
-2.03951 0.850167 20.7005 
-2.07469 0.756574 20.7088 
-2.10938 0.637559 20.6996 
-2.56938 0.953653 20.1521 
-2.51275 1.06128 20.181 
-2.48593 1.13083 20.2143 
-2.48376 1.16438 20.2485 
-2.50109 1.164 20.2799 
-2.53278 1.13179 20.305 
-2.57368 1.06981 20.32 
-2.61864 0.980159 20.3215 
-2.6625 0.864903 20.3058 
-2.9687 1.21178 19.705 
-2.91543 1.31642 19.7391 
-2.89382 1.38535 19.7735 
-2.89829 1.42023 19.8054 
-2.92329 1.4227 19.8318 
-2.96324 1.39442 19.8501 
-3.01258 1.33701 19.8572 
-3.06576 1.25215 19.8504 
-3.11719 1.14146 19.8268 
-3.26039 1.50928 19.1897 
-3.21256 1.61047 19.2298 
-3.19706 1.6787 19.2654 
-3.2081 1.71512 19.2946 
-3.23991 1.72087 19.3154 
-3.28672 1.6971 19.3258 
-3.34276 1.64497 19.3238 
-3.40223 1.56563 19.3074 
-3.45937 1.46021 19.2747 
-3.43923 1.83959 18.6176 
-3.39647 1.93696 18.6643 
-3.38604 2.00441 18.7013 
-3.40211 2.04253 18.7275 
-3.43881 2.05192 18.742 
-3.4903 2.03317 18.7437 
-3.55073 1.9869 18.7316 
-3.61425 1.91368 18.7046 
-3.675 1.81412 18.6617 
-3.5 2.19615 18 
-3.45947 2.28939 18.0538 
-3.45117 2.35599 18.0923 
-3.46924 2.39596 18.1154 
-3.50781 2.40928 18.123 
-3.56103 2.39596 18.1154 
-3.62305 2.356 18.0923 
-3.68799 2.28939 18.0538 
-3.75 2.19615 18 
-3.43 2.55272 17.3824 
-3.39028 2.64183 17.4434 
-3.38215 2.70758 17.4833 
-3.39985 2.74939 17.5032 
-3.43766 2.76663 17.5041 
-3.48981 2.75874 17.487 
-3.55059 2.72509 17.453 
-3.61423 2.66511 17.4031 
-3.675 2.57819 17.3383 
-3.22875 2.88303 16.8103 
-3.19136 2.96832 16.8779 
-3.18371 3.03329 16.9192 
-3.20037 3.07679 16.9361 
-3.23596 3.09768 16.9307 
-3.28505 3.09481 16.9049 
-3.34226 3.06702 16.8608 
-3.40217 3.01316 16.8002 
-3.45937 2.93209 16.7253 
-2.90937 3.18053 16.295 
-2.87569 3.26237 16.3686 
-2.86879 3.32664 16.4111 
-2.8838 3.37168 16.4254 
-2.91587 3.39585 16.4143 
-2.96011 3.3975 16.3806 
-3.01166 3.37498 16.3274 
-3.06564 3.32664 16.2573 
-3.11719 3.25084 16.1732 
-2.485 3.43865 15.8479 
-2.45623 3.51751 15.9267 
-2.45033 3.58116 15.9702 
-2.46316 3.62754 15.9822 
-2.49055 3.65455 15.9662 
-2.52834 3.66012 15.9258 
-2.57236 3.64218 15.8646 
-2.61847 3.59863 15.7862 
-2.6625 3.5274 15.6942 
-1.96875 3.65084 15.4804 
-1.94595 3.72724 15.5634 
-1.94128 3.79039 15.6078 
-1.95145 3.83786 15.6179 
-1.97315 3.86721 15.5978 
-2.00308 3.87601 15.5518 
-2.03796 3.86182 15.4841 
-2.07449 3.82222 15.3989 
-2.10938 3.75475 15.3004 
-1.37375 3.81053 15.2038 
-1.35784 3.88508 15.29 
-1.35459 3.94785 15.3351 
-1.36168 3.99614 15.3438 
-1.37682 4.02726 15.3206 
-1.39771 4.03848 15.2704 
-1.42205 4.02713 15.1978 
-1.44754 3.99048 15.1075 
-1.47187 3.92584 15.0041 
-0.713125 3.91115 15.0295 
-0.704868 3.98454 15.1178 
-0.703176 4.04707 15.1633 
-0.706857 4.09588 15.171 
-0.714717 4.1281 15.1459 
-0.725561 4.14086 15.0931 
-0.738196 4.13129 15.0174 
-0.751428 4.09651 14.9238 
-0.764062 4.03365 14.8174 
0 3.94615 14.9689 
0 4.01913 15.0578 
0 4.08158 15.1035 
0 4.13058 15.1109 
0 4.16318 15.0852 
0 4.17647 15.0314 
0 4.16752 14.9546 
0 4.13339 14.8599 
0 4.07115 14.7524 
0.713125 3.91115 15.0295 
0.704868 3.98454 15.1178 
0.703176 4.04707 15.1633 
0.706857 4.09588 15.171 
0.714717 4.12811 15.1459 
0.725561 4.14086 15.0931 
0.738196 4.13129 15.0174 
0.751428 4.09651 14.9238 
0.764062 4.03365 14.8174 
1.37375 3.81053 15.2038 
1.35784 3.88508 15.29 
1.35459 3.94785 15.3351 
1.36168 3.99614 15.3438 
1.37682 4.02725 15.3206 
1.39771 4.03848 15.2704 
1.42205 4.02713 15.1978 
1.44754 3.99048 15.1075 
1.47187 3.92584 15.0041 
1.96875 3.65084 15.4804 
1.94595 3.72724 15.5634 
1.94128 3.79039 15.6078 
1.95145 3.83786 15.6179 
1.97315 3.86721 15.5978 
2.00308 3.87601 15.5518 
2.03796 3.86182 15.4841 
2.07449 3.82222 15.3989 
2.10938 3.75475 15.3004 
2.485 3.43865 15.8479 
2.45623 3.51751 15.9267 
2.45033 3.58116 15.9702 
2.46316 3.62754 15.9822 
2.49055 3.65455 15.9662 
2.52834 3.66012 15.9258 
2.57236 3.64218 15.8646 
2.61847 3.59863 15.7862 
2.6625 3.5274 15.6942 
2.90937 3.18053 16.295 
2.87569 3.26237 16.3686 
2.86879 3.32664 16.4111 
2.8838 3.37168 16.4254 
2.91587 3.39585 16.4143 
2.96011 3.3975 16.3806 
3.01166 3.37498 16.3274 
3.06564 3.32664 16.2573 
3.11719 3.25084 16.1732 
3.22875 2.88303 16.8103 
3.19136 2.96832 16.8779 
3.18371 3.03329 16.9192 
3.20037 3.07679 16.9361 
3.23596 3.09768 16.9307 
3.28505 3.09481 16.9049 
3.34226 3.06702 16.8608 
3.40217 3.01316 16.8002 
3.45937 2.93209 16.7253 
3.43 2.55272 17.3824 
3.39028 2.64183 17.4434 
3.38215 2.70758 17.4833 
3.39985 2.74939 17.5032 
3.43766 2.76663 17.5041 
3.48981 2.75874 17.487 
3.55059 2.72509 17.453 
3.61423 2.66511 17.4031 
3.675 2.57818 17.3383 
3.98315 1.77022 17.7541 
4.20898 1.3462 17.5093 
4.42017 0.925975 17.2667 
4.60938 0.511462 17.0273 
4.76929 0.104562 16.7924 
4.89258 -0.292825 16.563 
4.97192 -0.678794 16.3401 
5 -1.05144 16.125 
3.90349 1.36444 18.4569 
4.1248 0.917406 18.252 
4.33176 0.475671 18.0466 
4.51719 0.041883 17.8407 
4.6739 -0.381309 17.634 
4.79473 -0.791256 17.4263 
4.87249 -1.18531 17.2175 
4.9 -1.56082 17.0073 
3.67446 0.988529 19.108 
3.88279 0.520183 18.94 
4.0776 0.058517 18.7691 
4.25215 -0.393127 18.5941 
4.39967 -0.831411 18.4136 
4.5134 -1.25299 18.226 
4.5866 -1.65453 18.0302 
4.6125 -2.03269 17.8246 
3.311 0.649961 19.6944 
3.49872 0.162419 19.5596 
3.67426 -0.317196 19.4199 
3.83154 -0.784924 19.2728 
3.96447 -1.2368 19.1157 
4.06696 -1.66886 18.9464 
4.13291 -2.07715 18.7622 
4.15625 -2.45769 18.5607 
2.82804 0.356203 20.2032 
2.98838 -0.147993 20.0973 
3.13832 -0.643184 19.9845 
3.27266 -1.12487 19.8615 
3.38619 -1.58853 19.7249 
3.47373 -2.02969 19.5713 
3.53007 -2.44383 19.3973 
3.55 -2.82644 19.1994 
2.24052 0.114725 20.6215 
2.36755 -0.403163 20.5393 
2.48634 -0.911156 20.4487 
2.59277 -1.40431 20.3456 
2.68272 -1.87767 20.2257 
2.75207 -2.3263 20.0851 
2.79671 -2.74525 19.9194 
2.8125 -3.12957 19.7244 
1.56339 -0.067007 20.9363 
1.65203 -0.595198 20.8719 
1.73492 -1.11283 20.798 
1.80918 -1.61461 20.7098 
1.87195 -2.09527 20.6026 
1.92034 -2.54953 20.4717 
1.95148 -2.97209 20.3123 
1.9625 -3.35769 20.1195 
0.811568 -0.181522 21.1346 
0.857581 -0.716206 21.0815 
0.900609 -1.23991 21.0181 
0.93916 -1.74713 20.9393 
0.971742 -2.23239 20.8401 
0.996863 -2.69019 20.7153 
1.01303 -3.11504 20.5598 
1.01875 -3.50144 20.3685 
0 -0.221354 21.2036 
0 -0.758296 21.1544 
0 -1.28411 21.0946 
0 -1.79323 21.0192 
0 -2.28008 20.9227 
0 -2.73911 20.8001 
0 -3.16476 20.646 
0 -3.55144 20.4551 
-0.811568 -0.181522 21.1346 
-0.857581 -0.716206 21.0815 
-0.900609 -1.23991 21.0181 
-0.93916 -1.74713 20.9393 
-0.971742 -2.23239 20.8401 
-0.996863 -2.69019 20.7153 
-1.01303 -3.11504 20.5598 
-1.01875 -3.50144 20.3685 
-1.56339 -0.067007 20.9363 
-1.65203 -0.595198 20.8719 
-1.73492 -1.11283 20.798 
-1.80918 -1.61461 20.7098 
-1.87195 -2.09527 20.6026 
-1.92034 -2.54953 20.4717 
-1.95148 -2.97209 20.3123 
-1.9625 -3.35769 20.1195 
-2.24052 0.114725 20.6215 
-2.36755 -0.403163 20.5393 
-2.48634 -0.911156 20.4487 
-2.59277 -1.40431 20.3456 
-2.68272 -1.87767 20.2257 
-2.75207 -2.3263 20.0851 
-2.79671 -2.74525 19.9194 
-2.8125 -3.12957 19.7244 
-2.82804 0.356203 20.2032 
-2.98838 -0.147993 20.0973 
-3.13832 -0.643184 19.9845 
-3.27266 -1.12487 19.8615 
-3.38619 -1.58853 19.7249 
-3.47373 -2.02969 19.5713 
-3.53007 -2.44383 19.3973 
-3.55 -2.82644 19.1994 
-3.311 0.649961 19.6944 
-3.49872 0.162419 19.5596 
-3.67426 -0.317196 19.4199 
-3.83154 -0.784925 19.2728 
-3.96447 -1.2368 19.1157 
-4.06696 -1.66886 18.9464 
-4.13291 -2.07715 18.7622 
-4.15625 -2.45769 18.5607 
-3.67446 0.988529 19.108 
-3.88279 0.520183 18.94 
-4.0776 0.058517 18.7691 
-4.25215 -0.393127 18.5941 
-4.39967 -0.831411 18.4136 
-4.5134 -1.25299 18.226 
-4.5866 -1.65453 18.0302 
-4.6125 -2.03269 17.8246 
-3.90349 1.36444 18.4569 
-4.1248 0.917406 18.252 
-4.33176 0.475671 18.0466 
-4.51719 0.041883 17.8407 
-4.6739 -0.381309 17.634 
-4.79473 -0.791256 17.4263 
-4.87249 -1.18531 17.2175 
-4.9 -1.56082 17.0073 
-3.98315 1.77022 17.7541 
-4.20898 1.3462 17.5093 
-4.42017 0.925975 17.2667 
-4.60938 0.511462 17.0273 
-4.76929 0.104562 16.7924 
-4.89258 -0.292825 16.563 
-4.97192 -0.678794 16.3401 
-5 -1.05144 16.125 
-3.90349 2.17601 17.0513 
-4.1248 1.77499 16.7666 
-4.33176 1.37628 16.4867 
-4.51719 0.981042 16.214 
-4.6739 0.590433 15.9509 
-4.79473 0.205606 15.6997 
-4.87249 -0.17228 15.4628 
-4.9 -0.542068 15.2427 
-3.67446 2.55192 16.4002 
-3.88279 2.17221 16.0786 
-4.0776 1.79343 15.7642 
-4.25215 1.41605 15.4605 
-4.39967 1.04053 15.1713 
-4.5134 0.667343 14.8999 
-4.5866 0.296946 14.6501 
-4.6125 -0.070193 14.4254 
-3.311 2.89049 15.8137 
-3.49872 2.52997 15.4589 
-3.67426 2.16915 15.1134 
-3.83154 1.80785 14.7819 
-3.96447 1.44592 14.4691 
-4.06696 1.08321 14.1796 
-4.13291 0.71956 13.9181 
-4.15625 0.354807 13.6893 
-2.82804 3.18424 15.3049 
-2.98838 2.84038 14.9213 
-3.13832 2.49513 14.5488 
-3.27266 2.14779 14.1931 
-3.38619 1.79766 13.8599 
-3.47373 1.44404 13.5546 
-3.53007 1.08624 13.283 
-3.55 0.723557 13.0506 
-2.24052 3.42572 14.8867 
-2.36755 3.09556 14.4793 
-2.48634 2.76311 14.0847 
-2.59277 2.42723 13.7091 
-2.68272 2.0868 13.3591 
-2.75207 1.74065 13.0409 
-2.79671 1.38766 12.7609 
-2.8125 1.02668 12.5256 
-1.56339 3.60745 14.5719 
-1.65203 3.28759 14.1467 
-1.73492 2.96478 13.7354 
-1.80918 2.63754 13.3449 
-1.87195 2.30439 12.9822 
-1.92034 1.96388 12.6543 
-1.95148 1.61451 12.368 
-1.9625 1.25481 12.1305 
-0.811568 3.72197 14.3736 
-0.857581 3.4086 13.9371 
-0.900609 3.09186 13.5152 
-0.93916 2.77006 13.1153 
-0.971742 2.44151 12.7447 
-0.996863 2.10454 12.4106 
-1.01303 1.75745 12.1205 
-1.01875 1.39856 11.8815 
0 3.7618 14.3046 
0 3.45069 13.8642 
0 3.13606 13.4387 
0 2.81615 13.0355 
0 2.4892 12.6621 
0 2.15346 12.3259 
0 1.80717 12.0343 
0 1.44856 11.7949 
0.811568 3.72197 14.3736 
0.857581 3.4086 13.9371 
0.900609 3.09186 13.5152 
0.93916 2.77006 13.1153 
0.971742 2.44151 12.7447 
0.996863 2.10454 12.4106 
1.01303 1.75745 12.1205 
1.01875 1.39856 11.8815 
1.56339 3.60745 14.5719 
1.65203 3.28759 14.1467 
1.73492 2.96478 13.7354 
1.80918 2.63754 13.3449 
1.87195 2.30439 12.9822 
1.92034 1.96388 12.6543 
1.95148 1.61451 12.368 
1.9625 1.25481 12.1305 
2.24052 3.42572 14.8867 
2.36755 3.09556 14.4793 
2.48634 2.76311 14.0847 
2.59277 2.42723 13.7091 
2.68272 2.0868 13.3591 
2.75207 1.74065 13.0409 
2.79671 1.38766 12.7609 
2.8125 1.02668 12.5256 
2.82804 3.18424 15.3049 
2.98838 2.84038 14.9213 
3.13832 2.49513 14.5488 
3.27266 2.14779 14.1931 
3.38619 1.79766 13.8599 
3.47373 1.44404 13.5546 
3.53007 1.08624 13.283 
3.55 0.723557 13.0506 
3.311 2.89049 15.8137 
3.49872 2.52997 15.4589 
3.67426 2.16915 15.1134 
3.83154 1.80785 14.7819 
3.96447 1.44592 14.4691 
4.06696 1.08321 14.1796 
4.13291 0.71956 13.9181 
4.15625 0.354807 13.6893 
3.67446 2.55192 16.4002 
3.88279 2.17221 16.0786 
4.0776 1.79343 15.7642 
4.25215 1.41605 15.4605 
4.39967 1.04053 15.1713 
4.5134 0.667343 14.8999 
4.5866 0.296946 14.6501 
4.6125 -0.070193 14.4254 
3.90349 2.17601 17.0513 
4.1248 1.77499 16.7666 
4.33176 1.37628 16.4867 
4.51719 0.981042 16.214 
4.6739 0.590433 15.9509 
4.79473 0.205606 15.6997 
4.87249 -0.172279 15.4628 
4.9 -0.542068 15.2427 
4.94629 -1.39428 15.9271 
4.80469 -1.69335 15.7544 
4.60449 -1.95056 15.6059 
4.375 -2.1678 15.4805 
4.14551 -2.34699 15.377 
3.94531 -2.49003 15.2944 
3.80371 -2.59881 15.2316 
3.75 -2.67524 15.1875 
4.84736 -1.89818 16.7998 
4.70859 -2.18283 16.6022 
4.5124 -2.41964 16.4184 
4.2875 -2.61351 16.2524 
4.0626 -2.76932 16.1085 
3.86641 -2.89195 15.9906 
3.72764 -2.98631 15.9028 
3.675 -3.05727 15.8492 
4.56295 -2.36499 17.6084 
4.43232 -2.63627 17.3876 
4.24764 -2.85419 17.171 
4.03594 -3.0264 16.9676 
3.82423 -3.16055 16.7861 
3.63955 -3.26429 16.6355 
3.50892 -3.34529 16.5246 
3.45937 -3.41118 16.4622 
4.1116 -2.78542 18.3366 
3.9939 -3.04467 18.0949 
3.82749 -3.24557 17.8489 
3.63672 -3.39827 17.6117 
3.44595 -3.51292 17.3965 
3.27954 -3.59964 17.2164 
3.16183 -3.6686 17.0846 
3.11719 -3.72993 17.0143 
3.51186 -3.15021 18.9684 
3.41133 -3.39901 18.7087 
3.26919 -3.58515 18.4371 
3.10625 -3.72093 18.1706 
2.94331 -3.81865 17.926 
2.80117 -3.89061 17.7203 
2.70063 -3.94913 17.5704 
2.6625 -4.00649 17.4933 
2.78229 -3.45008 19.4878 
2.70264 -3.6903 19.2132 
2.59003 -3.8643 18.9206 
2.46094 -3.98616 18.63 
2.33185 -4.06997 18.3613 
2.21924 -4.1298 18.1346 
2.13959 -4.17973 17.9699 
2.10938 -4.23383 17.8871 
1.94142 -3.67576 19.8787 
1.88584 -3.90951 19.5929 
1.80726 -4.07438 19.2845 
1.71719 -4.18577 18.9757 
1.62711 -4.25911 18.6889 
1.54853 -4.3098 18.4464 
1.49296 -4.35327 18.2704 
1.47187 -4.40493 18.1834 
1.00781 -3.81796 20.125 
0.978955 -4.04765 19.8322 
0.938165 -4.20676 19.5138 
0.891406 -4.31155 19.1936 
0.844647 -4.37829 18.8953 
0.803857 -4.42323 18.6428 
0.775006 -4.46263 18.4599 
0.764062 -4.51274 18.3701 
0 -3.86742 20.2107 
0 -4.09569 19.9154 
0 -4.2528 19.5935 
0 -4.3553 19.2693 
0 -4.41975 18.9671 
0 -4.46268 18.7112 
0 -4.50066 18.5257 
0 -4.55024 18.4351 
-1.00781 -3.81796 20.125 
-0.978955 -4.04765 19.8322 
-0.938165 -4.20676 19.5138 
-0.891406 -4.31155 19.1936 
-0.844647 -4.37829 18.8953 
-0.803857 -4.42323 18.6428 
-0.775006 -4.46263 18.4599 
-0.764062 -4.51274 18.3701 
-1.94142 -3.67576 19.8787 
-1.88584 -3.90951 19.5929 
-1.80726 -4.07438 19.2845 
-1.71719 -4.18577 18.9757 
-1.62711 -4.25911 18.6889 
-1.54853 -4.3098 18.4464 
-1.49296 -4.35327 18.2704 
-1.47187 -4.40493 18.1834 
-2.78229 -3.45008 19.4878 
-2.70264 -3.6903 19.2132 
-2.59003 -3.8643 18.9206 
-2.46094 -3.98616 18.63 
-2.33185 -4.06997 18.3613 
-2.21924 -4.1298 18.1346 
-2.13959 -4.17973 17.9699 
-2.10938 -4.23383 17.8871 
-3.51186 -3.15021 18.9684 
-3.41133 -3.39901 18.7087 
-3.26919 -3.58515 18.4371 
-3.10625 -3.72093 18.1706 
-2.94331 -3.81865 17.926 
-2.80117 -3.89061 17.7203 
-2.70063 -3.94913 17.5704 
-2.6625 -4.00649 17.4933 
-4.1116 -2.78542 18.3366 
-3.9939 -3.04467 18.0949 
-3.82748 -3.24557 17.8489 
-3.63672 -3.39827 17.6117 
-3.44595 -3.51292 17.3965 
-3.27954 -3.59964 17.2164 
-3.16183 -3.6686 17.0846 
-3.11719 -3.72993 17.0143 
-4.56295 -2.36499 17.6084 
-4.43232 -2.63627 17.3876 
-4.24764 -2.85419 17.171 
-4.03594 -3.0264 16.9676 
-3.82423 -3.16055 16.7861 
-3.63955 -3.26429 16.6355 
-3.50892 -3.34529 16.5246 
-3.45937 -3.41118 16.4622 
-4.84736 -1.89818 16.7998 
-4.70859 -2.18283 16.6022 
-4.5124 -2.41964 16.4184 
-4.2875 -2.61351 16.2524 
-4.0626 -2.76932 16.1085 
-3.86641 -2.89195 15.9906 
-3.72764 -2.98631 15.9028 
-3.675 -3.05727 15.8492 
-4.94629 -1.39428 15.9271 
-4.80469 -1.69335 15.7544 
-4.60449 -1.95056 15.6059 
-4.375 -2.1678 15.4805 
-4.14551 -2.34699 15.377 
-3.94531 -2.49003 15.2944 
-3.80371 -2.59881 15.2316 
-3.75 -2.67524 15.1875 
-4.84736 -0.890377 15.0543 
-4.70859 -1.20387 14.9066 
-4.5124 -1.48147 14.7934 
-4.2875 -1.7221 14.7085 
-4.0626 -1.92467 14.6455 
-3.86641 -2.0881 14.5983 
-3.72764 -2.2113 14.5605 
-3.675 -2.29321 14.5258 
-4.56295 -0.423571 14.2457 
-4.43232 -0.750431 14.1212 
-4.24764 -1.04693 14.0408 
-4.03594 -1.30921 13.9933 
-3.82423 -1.53344 13.9679 
-3.63955 -1.71576 13.9534 
-3.50892 -1.85233 13.9387 
-3.45937 -1.9393 13.9128 
-4.1116 -0.003136 13.5175 
-3.9939 -0.342032 13.4138 
-3.82749 -0.655544 13.3629 
-3.63672 -0.937335 13.3492 
-3.44595 -1.18107 13.3576 
-3.27954 -1.38041 13.3725 
-3.16183 -1.52901 13.3787 
-3.11719 -1.62055 13.3607 
-3.51186 0.361653 12.8857 
-3.41133 0.012314 12.8001 
-3.26919 -0.315963 12.7747 
-3.10625 -0.614679 12.7904 
-2.94331 -0.875337 12.828 
-2.80117 -1.08944 12.8685 
-2.70063 -1.24849 12.8928 
-2.6625 -1.34399 12.8817 
-2.78229 0.661521 12.3663 
-2.70264 0.303598 12.2956 
-2.59003 -0.036815 12.2912 
-2.46094 -0.349444 12.331 
-2.33185 -0.624016 12.3927 
-2.21924 -0.850256 12.4543 
-2.13959 -1.01789 12.4934 
-2.10938 -1.11665 12.4879 
-1.94142 0.887196 11.9754 
-1.88584 0.522811 11.9159 
-1.80726 0.173265 11.9273 
-1.71719 -0.149835 11.9852 
-1.62711 -0.434877 12.0651 
-1.54853 -0.670251 12.1425 
-1.49296 -0.844346 12.1928 
-1.47187 -0.945553 12.1916 
-1.00781 1.0294 11.7291 
-0.978955 0.660946 11.6766 
-0.938165 0.305644 11.698 
-0.891406 -0.024054 11.7674 
-0.844647 -0.315694 11.8587 
-0.803857 -0.556823 11.946 
-0.775006 -0.73499 12.0034 
-0.764062 -0.83774 12.0049 
0 1.07886 11.6435 
0 0.708993 11.5934 
0 0.351688 11.6183 
0 0.019696 11.6916 
0 -0.274239 11.7869 
0 -0.51737 11.8777 
0 -0.696952 11.9375 
0 -0.800241 11.9399 
1.00781 1.0294 11.7291 
0.978955 0.660946 11.6766 
0.938165 0.305644 11.698 
0.891406 -0.024054 11.7674 
0.844647 -0.315694 11.8587 
0.803857 -0.556823 11.946 
0.775006 -0.73499 12.0034 
0.764062 -0.837741 12.0049 
1.94142 0.887196 11.9754 
1.88584 0.522811 11.9159 
1.80726 0.173265 11.9273 
1.71719 -0.149835 11.9852 
1.62711 -0.434877 12.0651 
1.54853 -0.670251 12.1425 
1.49296 -0.844346 12.1928 
1.47187 -0.945553 12.1916 
2.78229 0.661521 12.3663 
2.70264 0.303598 12.2956 
2.59003 -0.036815 12.2912 
2.46094 -0.349444 12.331 
2.33185 -0.624016 12.3927 
2.21924 -0.850256 12.4543 
2.13959 -1.01789 12.4934 
2.10938 -1.11665 12.4879 
3.51186 0.361653 12.8857 
3.41133 0.012314 12.8001 
3.26919 -0.315963 12.7747 
3.10625 -0.614679 12.7904 
2.94331 -0.875337 12.828 
2.80117 -1.08944 12.8685 
2.70063 -1.24849 12.8928 
2.6625 -1.34399 12.8817 
4.1116 -0.003136 13.5175 
3.9939 -0.342032 13.4138 
3.82748 -0.655544 13.3629 
3.63672 -0.937335 13.3492 
3.44595 -1.18107 13.3576 
3.27954 -1.38041 13.3725 
3.16183 -1.52901 13.3787 
3.11719 -1.62055 13.3607 
4.56295 -0.423571 14.2457 
4.43232 -0.750431 14.1212 
4.24764 -1.04693 14.0408 
4.03594 -1.30921 13.9933 
3.82423 -1.53344 13.9679 
3.63955 -1.71576 13.9534 
3.50892 -1.85233 13.9387 
3.45937 -1.9393 13.9128 
4.84736 -0.890377 15.0543 
4.70859 -1.20387 14.9066 
4.5124 -1.48147 14.7934 
4.2875 -1.7221 14.7085 
4.0626 -1.92467 14.6455 
3.86641 -2.0881 14.5983 
3.72764 -2.2113 14.5605 
3.675 -2.29321 14.5258 
3.73499 -2.73582 15.1525 
3.66504 -2.79449 15.1187 
3.50281 -2.84935 15.087 
3.21094 -2.89851 15.0586 
2.75207 -2.94006 15.0346 
2.08887 -2.97209 15.0161 
1.18396 -2.99271 15.0042 
0 -3 15 
3.66028 -3.11632 15.8116 
3.59174 -3.16786 15.7654 
3.43275 -3.2062 15.7051 
3.14672 -3.22563 15.6252 
2.69703 -3.22043 15.5202 
2.04709 -3.18489 15.3847 
1.16028 -3.11332 15.2131 
3.44552 -3.46881 16.4221 
3.381 -3.51375 16.3645 
3.23134 -3.53678 16.2776 
2.96209 -3.52866 16.15 
2.53879 -3.48015 15.9701 
1.92698 -3.38203 15.7262 
1.0922 -3.22506 15.4067 
3.10471 -3.78628 16.972 
3.04656 -3.82528 16.904 
2.91171 -3.83452 16.7933 
2.66909 -3.80159 16.6228 
2.28766 -3.71408 16.3753 
1.73637 -3.55959 16.0337 
0.984167 -3.32569 15.581 
2.65184 -4.06174 17.4491 
2.60218 -4.09558 17.3722 
2.48699 -4.09285 17.2408 
2.27977 -4.03839 17.0329 
1.95397 -3.91705 16.7268 
1.4831 -3.71364 16.3005 
0.840612 -3.41301 15.7322 
2.10093 -4.28817 17.8413 
2.06158 -4.31777 17.7571 
1.97033 -4.30521 17.6086 
1.80615 -4.23306 17.3701 
1.54804 -4.08389 17.0158 
1.17499 -3.84028 16.5199 
0.665977 -3.48479 15.8565 
1.46598 -4.45858 18.1364 
1.43853 -4.48499 18.0467 
1.37485 -4.46502 17.8854 
1.26029 -4.37956 17.6238 
1.08019 -4.20945 17.2333 
0.81988 -3.93558 16.6849 
0.464704 -3.53881 15.9501 
0.761003 -4.56596 18.3224 
0.746752 -4.59036 18.2292 
0.713697 -4.56573 18.0598 
0.654228 -4.47187 17.7837 
0.560735 -4.28858 17.3703 
0.425607 -3.99564 16.7889 
0.241232 -3.57285 16.009 
0 -4.60331 18.3871 
0 -4.62701 18.2927 
0 -4.60076 18.1205 
0 -4.50398 17.8393 
0 -4.3161 17.418 
0 -4.01652 16.8251 
0 -3.58469 16.0296 
-0.761003 -4.56596 18.3224 
-0.746752 -4.59036 18.2292 
-0.713697 -4.56573 18.0598 
-0.654228 -4.47187 17.7837 
-0.560735 -4.28858 17.3703 
-0.425607 -3.99564 16.7889 
-0.241232 -3.57285 16.009 
-1.46598 -4.45858 18.1364 
-1.43853 -4.48499 18.0467 
-1.37485 -4.46502 17.8854 
-1.26029 -4.37956 17.6238 
-1.08019 -4.20945 17.2333 
-0.81988 -3.93558 16.6849 
-0.464704 -3.53881 15.9501 
-2.10093 -4.28817 17.8413 
-2.06158 -4.31777 17.7571 
-1.97033 -4.30521 17.6086 
-1.80615 -4.23306 17.3701 
-1.54804 -4.08389 17.0158 
-1.17499 -3.84028 16.5199 
-0.665977 -3.48479 15.8565 
-2.65184 -4.06174 17.4491 
-2.60218 -4.09558 17.3722 
-2.48699 -4.09285 17.2408 
-2.27977 -4.03839 17.0329 
-1.95397 -3.91705 16.7268 
-1.4831 -3.71364 16.3005 
-0.840612 -3.41301 15.7322 
-3.10471 -3.78628 16.972 
-3.04656 -3.82528 16.904 
-2.91171 -3.83452 16.7933 
-2.66909 -3.80159 16.6228 
-2.28766 -3.71408 16.3753 
-1.73637 -3.55959 16.0337 
-0.984167 -3.32569 15.581 
-3.44552 -3.46881 16.4221 
-3.381 -3.51375 16.3645 
-3.23134 -3.53678 16.2776 
-2.96209 -3.52866 16.15 
-2.53879 -3.48015 15.9701 
-1.92698 -3.38203 15.7262 
-1.0922 -3.22506 15.4067 
-3.66029 -3.11632 15.8116 
-3.59174 -3.16786 15.7654 
-3.43275 -3.2062 15.7051 
-3.14672 -3.22563 15.6252 
-2.69703 -3.22043 15.5202 
-2.04709 -3.18489 15.3847 
-1.16028 -3.11332 15.2131 
-3.73499 -2.73582 15.1525 
-3.66504 -2.79449 15.1187 
-3.50281 -2.84935 15.087 
-3.21094 -2.89851 15.0586 
-2.75207 -2.94006 15.0346 
-2.08887 -2.97209 15.0161 
-1.18396 -2.99271 15.0042 
-3.66028 -2.35531 14.4935 
-3.59174 -2.42111 14.4719 
-3.43275 -2.49251 14.4689 
-3.14672 -2.5714 14.492 
-2.69703 -2.65969 14.549 
-2.04709 -2.75929 14.6475 
-1.16028 -2.87209 14.7953 
-3.44552 -2.00283 13.8829 
-3.381 -2.07522 13.8729 
-3.23134 -2.16193 13.8963 
-2.96209 -2.26837 13.9671 
-2.53879 -2.39996 14.0991 
-1.92698 -2.56215 14.3061 
-1.0922 -2.76035 14.6018 
-3.10471 -1.68535 13.3331 
-3.04656 -1.7637 13.3333 
-2.91171 -1.86419 13.3806 
-2.66909 -1.99544 13.4944 
-2.28766 -2.16604 13.694 
-1.73637 -2.3846 13.9985 
-0.984167 -2.65972 14.4275 
-2.65184 -1.4099 12.856 
-2.60218 -1.4934 12.8651 
-2.48699 -1.60586 12.9332 
-2.27977 -1.75863 13.0843 
-1.95397 -1.96307 13.3424 
-1.4831 -2.23054 13.7317 
-0.840612 -2.5724 14.2762 
-2.10093 -1.18346 12.4638 
-2.06158 -1.27121 12.4803 
-1.97033 -1.3935 12.5654 
-1.80615 -1.56397 12.7471 
-1.54804 -1.79623 13.0534 
-1.17499 -2.10391 13.5124 
-0.665977 -2.50062 14.1519 
-1.46598 -1.01305 12.1686 
-1.43853 -1.10399 12.1906 
-1.37485 -1.23369 12.2886 
-1.26029 -1.41747 12.4933 
-1.08019 -1.67067 12.836 
-0.81988 -2.0086 13.3473 
-0.464704 -2.4466 14.0583 
-0.761003 -0.905673 11.9826 
-0.746752 -0.998619 12.0081 
-0.713697 -1.13298 12.1141 
-0.654228 -1.32515 12.3335 
-0.560735 -1.59154 12.6989 
-0.425607 -1.94855 13.2433 
-0.241232 -2.41256 13.9994 
0 -0.868323 11.9179 
0 -0.961969 11.9446 
0 -1.09795 12.0535 
0 -1.29304 12.2778 
0 -1.56402 12.6512 
0 -1.92766 13.2071 
0 -2.40073 13.9789 
0.761003 -0.905673 11.9826 
0.746752 -0.998619 12.0081 
0.713697 -1.13298 12.1141 
0.654228 -1.32515 12.3335 
0.560735 -1.59154 12.6989 
0.425607 -1.94855 13.2433 
0.241232 -2.41256 13.9994 
1.46598 -1.01305 12.1686 
1.43853 -1.10399 12.1906 
1.37485 -1.23369 12.2886 
1.26029 -1.41747 12.4933 
1.08019 -1.67067 12.836 
0.81988 -2.0086 13.3473 
0.464704 -2.4466 14.0583 
2.10093 -1.18346 12.4638 
2.06158 -1.27121 12.4803 
1.97033 -1.3935 12.5654 
1.80615 -1.56397 12.7471 
1.54804 -1.79623 13.0534 
1.17499 -2.10391 13.5124 
0.665977 -2.50062 14.1519 
2.65184 -1.4099 12.856 
2.60218 -1.4934 12.8651 
2.48699 -1.60586 12.9332 
2.27977 -1.75863 13.0843 
1.95397 -1.96307 13.3424 
1.4831 -2.23054 13.7317 
0.840612 -2.5724 14.2762 
3.10471 -1.68535 13.3331 
3.04656 -1.7637 13.3333 
2.91171 -1.86419 13.3806 
2.66909 -1.99544 13.4944 
2.28766 -2.16604 13.694 
1.73637 -2.3846 13.9985 
0.984167 -2.65972 14.4275 
3.44552 -2.00283 13.8829 
3.381 -2.07522 13.8729 
3.23134 -2.16193 13.8963 
2.96209 -2.26837 13.9671 
2.53879 -2.39996 14.0991 
1.92698 -2.56215 14.3061 
1.0922 -2.76035 14.6018 
3.66029 -2.35531 14.4935 
3.59174 -2.42111 14.4719 
3.43275 -2.49251 14.4689 
3.14672 -2.5714 14.492 
2.69703 -2.65969 14.549 
2.04709 -2.75929 14.6475 
1.16028 -2.87209 14.7953 
-4 1.38425 17.5313 
-4.6206 1.3833 17.5307 
-5.16797 1.37664 17.5269 
-5.63916 1.35856 17.5164 
-6.03125 1.32336 17.4961 
-6.34131 1.26532 17.4626 
-6.56641 1.17874 17.4126 
-6.70361 1.05791 17.3428 
-6.75 0.897115 17.25 
-3.98926 1.28214 17.7565 
-4.62096 1.28115 17.7559 
-5.17754 1.2742 17.7519 
-5.65618 1.25535 17.741 
-6.05408 1.21863 17.7198 
-6.36844 1.1581 17.6848 
-6.59645 1.0678 17.6327 
-6.73531 0.941771 17.5599 
-6.78223 0.774067 17.4631 
-3.96094 1.24943 17.9405 
-4.6219 1.24833 17.9399 
-5.20276 1.24063 17.9355 
-5.70104 1.21973 17.9234 
-6.11426 1.17903 17.8999 
-6.43996 1.11192 17.8612 
-6.67566 1.01181 17.8034 
-6.81889 0.872095 17.7227 
-6.86719 0.686177 17.6154 
-3.9209 1.27472 18.0769 
-4.62323 1.27346 18.0762 
-5.23842 1.2647 18.0711 
-5.76445 1.2409 18.0574 
-6.19934 1.19456 18.0307 
-6.54107 1.11816 17.9865 
-6.78764 1.00418 17.9207 
-6.93706 0.845112 17.8289 
-6.98731 0.633442 17.7067 
-3.875 1.34657 18.159 
-4.62475 1.34515 18.1582 
-5.2793 1.33516 18.1524 
-5.83716 1.30804 18.1368 
-6.29688 1.25523 18.1063 
-6.65698 1.16818 18.056 
-6.91602 1.03831 17.981 
-7.07251 0.857056 17.8764 
-7.125 0.615865 17.7371 
-3.8291 1.45359 18.1802 
-4.62628 1.45199 18.1793 
-5.32018 1.44077 18.1728 
-5.90986 1.41034 18.1552 
-6.39441 1.35107 18.121 
-6.77289 1.25336 18.0646 
-7.04439 1.10759 17.9804 
-7.20796 0.904155 17.863 
-7.26269 0.633443 17.7067 
-3.78906 1.58434 18.1339 
-4.62761 1.58259 18.1329 
-5.35583 1.57031 18.1258 
-5.97328 1.53698 18.1066 
-6.47949 1.47207 18.0691 
-6.87401 1.36506 18.0073 
-7.15637 1.20543 17.9151 
-7.32613 0.982641 17.7865 
-7.38281 0.686177 17.6154 
-3.76074 1.72741 18.0135 
-4.62855 1.72555 18.0125 
-5.38106 1.71252 18.0049 
-6.01814 1.67714 17.9845 
-6.53967 1.60825 17.9447 
-6.94553 1.49466 17.8792 
-7.23558 1.32522 17.7813 
-7.4097 1.08875 17.6448 
-7.46777 0.774068 17.4631 
-3.75 1.87139 17.8125 
-4.62891 1.86949 17.8114 
-5.39063 1.85617 17.8037 
-6.03516 1.82001 17.7828 
-6.5625 1.74961 17.7422 
-6.97266 1.63353 17.6752 
-7.26563 1.46037 17.5752 
-7.44141 1.2187 17.4357 
-7.5 0.897115 17.25 
-3.76074 1.97351 17.5873 
-4.62855 1.97165 17.5862 
-5.38106 1.95861 17.5787 
-6.01814 1.92323 17.5583 
-6.53967 1.85434 17.5185 
-6.94553 1.74076 17.4529 
-7.23558 1.57132 17.3551 
-7.4097 1.33484 17.2186 
-7.46777 1.02016 17.0369 
-3.78906 2.00622 17.4032 
-4.62761 2.00446 17.4022 
-5.35583 1.99218 17.3951 
-5.97328 1.95885 17.3759 
-6.47949 1.89394 17.3384 
-6.87401 1.78694 17.2766 
-7.15637 1.6273 17.1844 
-7.32613 1.40452 17.0558 
-7.38281 1.10805 16.8846 
-3.8291 1.98093 17.2668 
-4.62628 1.97933 17.2659 
-5.32018 1.96812 17.2594 
-5.90986 1.93768 17.2418 
-6.39441 1.87841 17.2076 
-6.77289 1.7807 17.1512 
-7.04439 1.63493 17.0671 
-7.20796 1.4315 16.9496 
-7.26269 1.16079 16.7933 
-3.875 1.90907 17.1847 
-4.62475 1.90765 17.1839 
-5.2793 1.89766 17.1781 
-5.83716 1.87054 17.1625 
-6.29688 1.81773 17.132 
-6.65698 1.73068 17.0817 
-6.91602 1.60081 17.0068 
-7.07251 1.41956 16.9021 
-7.125 1.17836 16.7629 
-3.9209 1.80206 17.1635 
-4.62323 1.80081 17.1628 
-5.23842 1.79204 17.1578 
-5.76446 1.76824 17.144 
-6.19934 1.7219 17.1173 
-6.54107 1.6455 17.0732 
-6.78764 1.53152 17.0074 
-6.93706 1.37246 16.9155 
-6.98731 1.16079 16.7933 
-3.96094 1.67131 17.2098 
-4.6219 1.67021 17.2092 
-5.20276 1.66251 17.2048 
-5.70104 1.6416 17.1927 
-6.11426 1.6009 17.1692 
-6.43996 1.53379 17.1304 
-6.67566 1.43368 17.0726 
-6.81889 1.29397 16.992 
-6.86719 1.10805 16.8846 
-3.98926 1.52823 17.3302 
-4.62096 1.52724 17.3296 
-5.17754 1.5203 17.3256 
-5.65618 1.50144 17.3147 
-6.05408 1.46472 17.2935 
-6.36844 1.40419 17.2586 
-6.59645 1.31389 17.2065 
-6.73531 1.18786 17.1337 
-6.78223 1.02016 17.0369 
-6.72607 0.693506 17.1324 
-6.65234 0.455645 16.9951 
-6.52588 0.194949 16.8446 
-6.34375 -0.077164 16.6875 
-6.10303 -0.349277 16.5304 
-5.80078 -0.609973 16.3799 
-5.43408 -0.847834 16.2426 
-5 -1.05144 16.125 
-6.75756 0.563678 17.3417 
-6.68163 0.320878 17.2015 
-6.55159 0.056633 17.0489 
-6.36456 -0.21809 16.8903 
-6.11768 -0.492322 16.732 
-5.80808 -0.755096 16.5803 
-5.4329 -0.995444 16.4415 
-4.98926 -1.2024 16.322 
-6.84055 0.457915 17.4836 
-6.75885 0.20209 17.3359 
-6.61938 -0.071514 17.1779 
-6.41943 -0.353117 17.0153 
-6.15632 -0.632936 16.8538 
-5.82733 -0.901189 16.6989 
-5.42977 -1.14809 16.5563 
-4.96094 -1.36387 16.4318 
-6.95789 0.37991 17.5603 
-6.86802 0.105674 17.402 
-6.71521 -0.181163 17.2364 
-6.49701 -0.472492 17.0682 
-6.21094 -0.760209 16.9021 
-5.85455 -1.03621 16.7427 
-5.42535 -1.29238 16.5948 
-4.9209 -1.52063 16.463 
-7.09241 0.333365 17.574 
-6.99316 0.038021 17.4035 
-6.82507 -0.263983 17.2292 
-6.58594 -0.566463 17.0545 
-6.27356 -0.863234 16.8832 
-5.88574 -1.14811 16.7187 
-5.42029 -1.41491 16.5647 
-4.875 -1.65745 16.4246 
-7.22692 0.321976 17.5269 
-7.11831 0.005524 17.3442 
-6.93493 -0.311648 17.161 
-6.67487 -0.625278 16.98 
-6.33618 -0.931104 16.8034 
-5.91694 -1.22486 16.6338 
-5.41522 -1.50229 16.4736 
-4.8291 -1.75912 16.3253 
-7.34426 0.34944 17.4209 
-7.22748 0.014576 17.2276 
-7.03077 -0.315827 17.0368 
-6.75244 -0.639184 16.8502 
-6.3908 -0.952908 16.669 
-5.94415 -1.25441 16.495 
-5.41081 -1.54111 16.3294 
-4.78906 -1.81041 16.1739 
-7.42726 0.419457 17.2584 
-7.3047 0.07157 17.0575 
-7.09856 -0.268193 16.8614 
-6.80731 -0.59843 16.6707 
-6.42944 -0.917741 16.4864 
-5.9634 -1.22472 16.3091 
-5.40768 -1.51798 16.1398 
-4.76074 -1.7961 15.9792 
-7.45874 0.535724 17.0414 
-7.33398 0.182897 16.8376 
-7.12427 -0.160415 16.6394 
-6.82813 -0.493262 16.4473 
-6.44409 -0.814692 16.2617 
-5.9707 -1.12375 16.0833 
-5.40649 -1.41949 15.9125 
-4.75 -1.70096 15.75 
-7.42726 0.665551 16.8321 
-7.3047 0.317664 16.6313 
-7.09856 -0.022099 16.4351 
-6.80731 -0.352336 16.2445 
-6.42944 -0.671647 16.0601 
-5.9634 -0.978629 15.8829 
-5.40768 -1.27188 15.7136 
-4.76074 -1.55001 15.553 
-7.34426 0.771315 16.6902 
-7.22748 0.436451 16.4969 
-7.03077 0.106048 16.3061 
-6.75244 -0.217309 16.1194 
-6.3908 -0.531033 15.9383 
-5.94415 -0.832537 15.7642 
-5.41081 -1.11923 15.5987 
-4.78906 -1.38854 15.4432 
-7.22692 0.849319 16.6135 
-7.11831 0.532868 16.4308 
-6.93493 0.215696 16.2477 
-6.67487 -0.097934 16.0666 
-6.33618 -0.403759 15.89 
-5.91694 -0.697517 15.7204 
-5.41522 -0.974945 15.5602 
-4.8291 -1.23178 15.412 
-7.09241 0.895865 16.5998 
-6.99317 0.600521 16.4292 
-6.82507 0.298517 16.2549 
-6.58594 -0.003963 16.0802 
-6.27356 -0.300735 15.9089 
-5.88574 -0.585613 15.7444 
-5.42029 -0.852413 15.5904 
-4.875 -1.09495 15.4504 
-6.95789 0.907254 16.6469 
-6.86802 0.633017 16.4886 
-6.71521 0.346181 16.323 
-6.49701 0.054852 16.1548 
-6.21094 -0.232866 15.9887 
-5.85455 -0.508864 15.8293 
-5.42535 -0.765038 15.6814 
-4.9209 -0.993283 15.5497 
-6.84055 0.87979 16.7529 
-6.75885 0.623965 16.6052 
-6.61938 0.350361 16.4472 
-6.41943 0.068758 16.2846 
-6.15632 -0.211061 16.1231 
-5.82733 -0.479313 15.9682 
-5.42977 -0.726218 15.8256 
-4.96094 -0.941993 15.7011 
-6.75756 0.809772 16.9154 
-6.68163 0.566972 16.7752 
-6.55159 0.302726 16.6227 
-6.36456 0.028004 16.4641 
-6.11768 -0.246228 16.3057 
-5.80808 -0.509002 16.154 
-5.4329 -0.749351 16.0152 
-4.98926 -0.956305 15.8958 
4.25 0.085216 16.7813 
4.9624 0.14928 16.8182 
5.44922 0.323711 16.9189 
5.76611 0.581869 17.068 
5.96875 0.897115 17.25 
6.11279 1.24281 17.4496 
6.25391 1.5923 17.6514 
6.44775 1.91896 17.84 
6.75 2.19615 18 
4.25 -0.262238 17.2058 
4.97839 -0.181926 17.2355 
5.4744 0.022375 17.3095 
5.79595 0.319267 17.4187 
6.00098 0.677351 17.5541 
6.14741 1.06523 17.7067 
6.29318 1.4515 17.8676 
6.49622 1.80476 18.0275 
6.81445 2.09362 18.1776 
4.25 -0.657938 17.4239 
5.02054 -0.548681 17.4584 
5.54077 -0.302247 17.5252 
5.8746 0.044995 17.6191 
6.08594 0.456676 17.7345 
6.23868 0.896425 17.8662 
6.39673 1.32787 18.0087 
6.62399 1.71464 18.1566 
6.98438 2.02037 18.3045 
4.25 -1.06002 17.4597 
5.08013 -0.914042 17.5082 
5.63461 -0.619114 17.5842 
5.98581 -0.216342 17.6835 
6.20605 0.253167 17.8018 
6.36771 0.748305 17.9348 
6.54312 1.22796 18.0785 
6.80464 1.65104 18.2285 
7.22461 1.97643 18.3806 
4.25 -1.42662 17.3373 
5.14844 -1.24107 17.4063 
5.74219 -0.897186 17.5043 
6.11328 -0.440142 17.626 
6.34375 0.0849 17.7662 
6.51563 0.632777 17.9195 
6.71094 1.15832 18.0808 
7.01172 1.61638 18.2447 
7.5 1.96178 18.4059 
4.25 -1.71588 17.081 
5.21675 -1.49281 17.174 
5.84976 -1.10542 17.3034 
6.24076 -0.6018 17.4609 
6.48144 -0.030046 17.6382 
6.66354 0.561748 17.8271 
6.87875 1.12549 18.0193 
7.2188 1.61308 18.2066 
7.77539 1.97643 18.3806 
4.25 -1.88593 16.7149 
5.27634 -1.63234 16.8327 
5.9436 -1.21278 16.9995 
6.35196 -0.676714 17.2024 
6.60156 -0.073595 17.4284 
6.79257 0.547126 17.6645 
7.02515 1.136 17.8979 
7.39945 1.64356 18.1155 
8.01563 2.02037 18.3045 
4.25 -1.89491 16.2632 
5.31848 -1.62269 16.4037 
6.00998 -1.18822 16.6105 
6.43061 -0.640278 16.8647 
6.68652 -0.027669 17.1471 
6.88384 0.600819 17.4386 
7.12869 1.19639 17.7203 
7.52722 1.71025 17.973 
8.18555 2.09361 18.1776 
4.25 -1.70096 15.75 
5.33447 -1.42695 15.9082 
6.03516 -1.0007 16.1543 
6.46045 -0.467891 16.4619 
6.71875 0.12581 16.8047 
6.91846 0.734735 17.1563 
7.16797 1.31321 17.4902 
7.57568 1.81558 17.7803 
8.25 2.19615 18 
4.25 -1.35351 15.3254 
5.31848 -1.09574 15.4909 
6.00998 -0.699363 15.7638 
6.43061 -0.205288 16.1112 
6.68652 0.345574 16.5006 
6.88384 0.912313 16.8991 
7.12869 1.45402 17.274 
7.52722 1.92978 17.5927 
8.18555 2.29869 17.8224 
4.25 -0.957809 15.1074 
5.27634 -0.728985 15.2681 
5.9436 -0.374742 15.548 
6.35196 0.068983 15.9108 
6.60156 0.566249 16.3201 
6.79257 1.08112 16.7396 
7.02515 1.57765 17.1329 
7.39945 2.0199 17.4637 
8.01563 2.37193 17.6955 
4.25 -0.555726 15.0716 
5.21675 -0.363624 15.2182 
5.84976 -0.057874 15.489 
6.24076 0.33032 15.8464 
6.48144 0.769758 16.2529 
6.66354 1.22924 16.671 
6.87875 1.67755 17.0631 
7.2188 2.0835 17.3918 
7.77539 2.41588 17.6194 
4.25 -0.189123 15.1939 
5.14844 -0.036599 15.3201 
5.74219 0.220197 15.5689 
6.11328 0.554121 15.9039 
6.34375 0.938025 16.2885 
6.51563 1.34476 16.6863 
6.71094 1.74719 17.0608 
7.01172 2.11816 17.3756 
7.5 2.43053 17.5941 
4.25 0.100136 15.4502 
5.08013 0.215146 15.5524 
5.63461 0.428432 15.7698 
5.98581 0.71578 16.069 
6.20606 1.05297 16.4164 
6.36771 1.41579 16.7787 
6.54312 1.78003 17.1223 
6.80464 2.12146 17.4137 
7.22461 2.41588 17.6194 
4.25 0.270188 15.8163 
5.02054 0.35467 15.8937 
5.54077 0.53579 16.0737 
5.8746 0.790693 16.3275 
6.08594 1.09652 16.6263 
6.23868 1.43042 16.9413 
6.39673 1.76952 17.2437 
6.62399 2.09098 17.5047 
6.98438 2.37193 17.6955 
4.25 0.279169 16.2681 
4.97839 0.345028 16.3228 
5.4744 0.51123 16.4627 
5.79595 0.754257 16.6652 
6.00098 1.05059 16.9076 
6.14741 1.37672 17.1672 
6.29318 1.70913 17.4213 
6.49622 2.02429 17.6473 
6.81445 2.29869 17.8224 
6.84277 2.24943 18.0308 
6.92969 2.28749 18.0527 
7.00488 2.31033 18.0659 
7.0625 2.31794 18.0703 
7.09668 2.31033 18.0659 
7.10156 2.28749 18.0527 
7.07129 2.24943 18.0308 
7 2.19615 18 
6.91082 2.1493 18.2057 
6.99871 2.19259 18.2199 
7.07269 2.22245 18.222 
7.12729 2.23787 18.2135 
7.15707 2.23782 18.1961 
7.15658 2.22128 18.1714 
7.12036 2.18722 18.141 
7.04297 2.13463 18.1066 
7.09021 2.07902 18.3313 
7.1807 2.12716 18.3407 
7.25145 2.16292 18.3354 
7.2981 2.18445 18.318 
7.31627 2.18986 18.2913 
7.30161 2.17728 18.258 
7.24972 2.14485 18.2209 
7.15625 2.09068 18.1827 
7.34384 2.03823 18.4075 
7.43798 2.09053 18.4147 
7.50417 2.13083 18.4055 
7.53958 2.15661 18.3831 
7.54136 2.16536 18.3509 
7.50665 2.15457 18.3122 
7.43261 2.12172 18.2702 
7.31641 2.06432 18.2283 
7.63458 2.02658 18.4341 
7.73291 2.08204 18.4416 
7.79388 2.12524 18.4318 
7.81641 2.15327 18.4083 
7.79938 2.16323 18.3743 
7.7417 2.1522 18.3332 
7.64227 2.11727 18.2885 
7.5 2.05553 18.2436 
7.92532 2.04373 18.4107 
8.02784 2.10101 18.4208 
8.0836 2.14524 18.4138 
8.09323 2.17338 18.3928 
8.0574 2.18239 18.3607 
7.97675 2.16924 18.3206 
7.85193 2.13089 18.2755 
7.68359 2.06432 18.2283 
8.17895 2.08932 18.3373 
8.28513 2.14678 18.3521 
8.33632 2.18991 18.351 
8.33472 2.21585 18.3361 
8.28248 2.22175 18.3097 
8.18179 2.20475 18.2739 
8.03482 2.16202 18.2308 
7.84375 2.09068 18.1827 
8.35835 2.163 18.2136 
8.46711 2.21868 18.235 
8.51508 2.25833 18.2427 
8.50552 2.27961 18.2376 
8.44169 2.28022 18.2206 
8.32682 2.2578 18.1925 
8.16419 2.21005 18.1542 
7.95703 2.13463 18.1066 
8.42639 2.26442 18.0394 
8.53613 2.31604 18.0692 
8.58289 2.34957 18.0886 
8.57031 2.36361 18.0967 
8.50208 2.35671 18.0927 
8.38184 2.32745 18.0758 
8.21326 2.27441 18.0452 
8 2.19615 18 
8.35835 2.36455 17.8645 
8.46711 2.41094 17.902 
8.51508 2.43745 17.9325 
8.50552 2.44368 17.9535 
8.44169 2.42922 17.9625 
8.32682 2.39367 17.9572 
8.16419 2.33662 17.9349 
7.95703 2.25768 17.8934 
8.17895 2.43484 17.7388 
8.28513 2.47637 17.7812 
8.33632 2.49697 17.8191 
8.33472 2.4971 17.849 
8.28248 2.47718 17.8673 
8.18179 2.43766 17.8705 
8.03482 2.379 17.855 
7.84375 2.30162 17.8173 
7.92532 2.47563 17.6626 
8.02784 2.513 17.7072 
8.0836 2.52907 17.749 
8.09323 2.52494 17.7839 
8.0574 2.50168 17.8077 
7.97675 2.46038 17.8164 
7.85193 2.40212 17.8057 
7.68359 2.32799 17.7717 
7.63458 2.48727 17.6361 
7.73291 2.52149 17.6804 
7.79388 2.53466 17.7227 
7.81641 2.52827 17.7587 
7.79938 2.50381 17.7844 
7.7417 2.46274 17.7953 
7.64227 2.40657 17.7874 
7.5 2.33678 17.7564 
7.34384 2.47013 17.6595 
7.43798 2.50252 17.7012 
7.50417 2.51466 17.7407 
7.53958 2.50817 17.7742 
7.54136 2.48465 17.7979 
7.50665 2.4457 17.8079 
7.43261 2.39295 17.8004 
7.31641 2.32799 17.7717 
7.09021 2.42454 17.7329 
7.1807 2.45675 17.7699 
7.25145 2.46999 17.8035 
7.2981 2.4657 17.8309 
7.31627 2.44529 17.8489 
7.30161 2.41019 17.8546 
7.24972 2.36183 17.8451 
7.15625 2.30162 17.8173 
6.91082 2.35085 17.8566 
6.99871 2.38485 17.8869 
7.07269 2.40157 17.9118 
7.12729 2.40193 17.9294 
7.15707 2.38682 17.938 
7.15657 2.35714 17.9361 
7.12036 2.31379 17.9218 
7.04297 2.25768 17.8934 
0 3.81995 18.9375 
0.575195 3.79141 18.921 
0.851563 3.71339 18.876 
0.905273 3.59731 18.809 
0.8125 3.4546 18.7266 
0.649414 3.29666 18.6354 
0.492188 3.13491 18.542 
0.416992 2.98078 18.453 
0.5 2.84567 18.375 
0.56375 3.7326 19.0229 
0.834618 3.62633 19.0268 
0.887258 3.50477 18.9692 
0.796327 3.37155 18.8704 
0.63648 3.23031 18.7503 
0.482373 3.08467 18.629 
0.408661 2.93827 18.5266 
0.49 2.79473 18.4632 
0.53082 3.67822 19.1171 
0.785863 3.54583 19.1662 
0.835424 3.41919 19.1175 
0.749795 3.29475 19.0034 
0.59927 3.16893 18.8566 
0.454142 3.03817 18.7096 
0.384704 2.8989 18.5948 
0.46125 2.74755 18.545 
0.47851 3.62932 19.2018 
0.708418 3.47342 19.2916 
0.753088 3.34222 19.2508 
0.675885 3.22567 19.1231 
0.540173 3.11372 18.9522 
0.409316 2.99633 18.782 
0.346679 2.86345 18.6562 
0.415625 2.70505 18.6186 
0.408927 3.58694 19.2752 
0.6054 3.41069 19.4003 
0.643568 3.27553 19.3663 
0.577578 3.16581 19.2268 
0.461578 3.06587 19.0351 
0.349717 2.96005 18.8449 
0.296141 2.83271 18.7095 
0.355 2.66817 18.6824 
0.324178 3.55215 19.3354 
0.479931 3.35918 19.4895 
0.510182 3.22077 19.4612 
0.457855 3.11665 19.3119 
0.365875 3.02657 19.1032 
0.277164 2.93025 18.8965 
0.234648 2.80744 18.7532 
0.28125 2.63786 18.7349 
0.22637 3.526 19.3807 
0.335128 3.32046 19.5566 
0.356247 3.1796 19.5325 
0.319697 3.0797 19.3759 
0.255451 2.99702 19.1544 
0.19348 2.90784 18.9353 
0.163756 2.78842 18.7862 
0.19625 2.61505 18.7745 
0.117608 3.50953 19.4092 
0.174111 3.29608 19.5988 
0.18508 3.15368 19.5773 
0.166085 3.05643 19.4162 
0.132697 2.97842 19.1866 
0.100485 2.89372 18.9597 
0.085021 2.77645 18.8069 
0.101875 2.60067 18.7994 
0 3.50381 19.4192 
0 3.28761 19.6135 
0 3.14468 19.5929 
0 3.04835 19.4302 
0 2.97195 19.1978 
0 2.88882 18.9682 
0 2.77228 18.8141 
0 2.59567 18.808 
-0.117608 3.50953 19.4092 
-0.174111 3.29608 19.5988 
-0.18508 3.15368 19.5773 
-0.166085 3.05643 19.4162 
-0.132697 2.97842 19.1866 
-0.100485 2.89372 18.9597 
-0.085021 2.77645 18.8069 
-0.101875 2.60067 18.7994 
-0.22637 3.526 19.3807 
-0.335128 3.32046 19.5566 
-0.356247 3.1796 19.5325 
-0.319697 3.0797 19.3759 
-0.255451 2.99702 19.1544 
-0.19348 2.90784 18.9353 
-0.163756 2.78842 18.7862 
-0.19625 2.61505 18.7745 
-0.324178 3.55215 19.3354 
-0.479931 3.35918 19.4895 
-0.510182 3.22077 19.4612 
-0.457855 3.11665 19.3119 
-0.365875 3.02657 19.1032 
-0.277164 2.93025 18.8965 
-0.234648 2.80744 18.7532 
-0.28125 2.63786 18.7349 
-0.408927 3.58694 19.2752 
-0.6054 3.41069 19.4003 
-0.643568 3.27553 19.3663 
-0.577578 3.16581 19.2268 
-0.461578 3.06587 19.0351 
-0.349717 2.96005 18.8449 
-0.296141 2.83271 18.7095 
-0.355 2.66817 18.6824 
-0.47851 3.62932 19.2018 
-0.708418 3.47342 19.2916 
-0.753088 3.34222 19.2508 
-0.675885 3.22567 19.1231 
-0.540173 3.11372 18.9522 
-0.409316 2.99633 18.782 
-0.346679 2.86345 18.6562 
-0.415625 2.70505 18.6186 
-0.53082 3.67822 19.1171 
-0.785863 3.54583 19.1662 
-0.835424 3.41919 19.1175 
-0.749795 3.29475 19.0034 
-0.59927 3.16893 18.8566 
-0.454142 3.03817 18.7096 
-0.384704 2.8989 18.5948 
-0.46125 2.74755 18.545 
-0.56375 3.7326 19.0229 
-0.834618 3.62633 19.0268 
-0.887258 3.50477 18.9692 
-0.796327 3.37155 18.8704 
-0.63648 3.23031 18.7503 
-0.482373 3.08467 18.629 
-0.408661 2.93827 18.5266 
-0.49 2.79473 18.4632 
-0.575195 3.79141 18.921 
-0.851563 3.71339 18.876 
-0.905273 3.59731 18.809 
-0.8125 3.4546 18.7266 
-0.649414 3.29666 18.6354 
-0.492188 3.13491 18.542 
-0.416992 2.98078 18.453 
-0.5 2.84567 18.375 
-0.56375 3.85021 18.8192 
-0.834618 3.80044 18.7252 
-0.887258 3.68985 18.6487 
-0.796327 3.53764 18.5827 
-0.63648 3.363 18.5205 
-0.482373 3.18515 18.455 
-0.408661 3.02329 18.3794 
-0.49 2.89661 18.2868 
-0.53082 3.90459 18.725 
-0.785863 3.88095 18.5857 
-0.835424 3.77544 18.5004 
-0.749795 3.61444 18.4497 
-0.59927 3.42438 18.4141 
-0.454142 3.23165 18.3744 
-0.384704 3.06265 18.3112 
-0.46125 2.9438 18.205 
-0.47851 3.9535 18.6403 
-0.708418 3.95335 18.4603 
-0.753088 3.8524 18.3671 
-0.675885 3.68352 18.33 
-0.540173 3.47959 18.3185 
-0.409316 3.27349 18.302 
-0.346679 3.0981 18.2498 
-0.415625 2.9863 18.1314 
-0.408927 3.99587 18.5669 
-0.6054 4.01609 18.3517 
-0.643568 3.9191 18.2516 
-0.577578 3.74339 18.2264 
-0.461578 3.52745 18.2356 
-0.349717 3.30977 18.2391 
-0.296141 3.12885 18.1965 
-0.355 3.02317 18.0676 
-0.324178 4.03066 18.5066 
-0.479931 4.0676 18.2625 
-0.510182 3.97386 18.1568 
-0.457855 3.79254 18.1412 
-0.365875 3.56674 18.1676 
-0.277164 3.33957 18.1875 
-0.234648 3.15411 18.1528 
-0.28125 3.05348 18.0151 
-0.22637 4.05682 18.4613 
-0.335128 4.10632 18.1954 
-0.356247 4.01502 18.0855 
-0.319697 3.82949 18.0772 
-0.255451 3.59629 18.1164 
-0.19348 3.36198 18.1487 
-0.163756 3.17313 18.1198 
-0.19625 3.0763 17.9755 
-0.117608 4.07328 18.4328 
-0.174111 4.1307 18.1532 
-0.18508 4.04094 18.0406 
-0.166085 3.85276 18.0369 
-0.132697 3.6149 18.0842 
-0.100485 3.3761 18.1242 
-0.085021 3.18511 18.0991 
-0.101875 3.09067 17.9506 
0 4.079 18.4229 
0 4.13917 18.1385 
0 4.04995 18.025 
0 3.86085 18.0229 
0 3.62136 18.073 
0 3.381 18.1157 
0 3.18927 18.0919 
0 3.09567 17.942 
0.117608 4.07328 18.4328 
0.174111 4.1307 18.1532 
0.18508 4.04094 18.0406 
0.166085 3.85276 18.0369 
0.132697 3.6149 18.0842 
0.100485 3.3761 18.1242 
0.085021 3.18511 18.0991 
0.101875 3.09067 17.9506 
0.22637 4.05682 18.4613 
0.335128 4.10632 18.1954 
0.356247 4.01502 18.0855 
0.319697 3.82949 18.0772 
0.255451 3.59629 18.1164 
0.19348 3.36198 18.1487 
0.163756 3.17313 18.1198 
0.19625 3.0763 17.9755 
0.324178 4.03066 18.5066 
0.479931 4.0676 18.2625 
0.510182 3.97386 18.1568 
0.457855 3.79254 18.1412 
0.365875 3.56674 18.1676 
0.277164 3.33957 18.1875 
0.234648 3.15412 18.1528 
0.28125 3.05348 18.0151 
0.408927 3.99587 18.5669 
0.6054 4.01609 18.3517 
0.643568 3.9191 18.2516 
0.577578 3.74339 18.2264 
0.461578 3.52745 18.2356 
0.349717 3.30977 18.2391 
0.296141 3.12885 18.1965 
0.355 3.02317 18.0676 
0.47851 3.9535 18.6403 
0.708418 3.95335 18.4603 
0.753088 3.8524 18.3671 
0.675885 3.68352 18.33 
0.540173 3.47959 18.3185 
0.409316 3.27349 18.302 
0.346679 3.0981 18.2498 
0.415625 2.9863 18.1314 
0.53082 3.90459 18.725 
0.785863 3.88095 18.5857 
0.835424 3.77544 18.5004 
0.749795 3.61444 18.4497 
0.59927 3.42438 18.4141 
0.454142 3.23165 18.3744 
0.384704 3.06265 18.3112 
